ply
format ascii 1.0
comment PCL generated
element vertex 1296
property float x
property float y
property float z
element camera 0
property float view_px
property float view_py
property float view_pz
property float x_axisx
property float x_axisy
property float x_axisz
property float y_axisx
property float y_axisy
property float y_axisz
property float z_axisx
property float z_axisy
property float z_axisz
property float focal
property float scalex
property float scaley
property float centerx
property float centery
property int viewportx
property int viewporty
property float k1
property float k2
end_header
0.021672584 -0.083167806 0.69500005
0.022831608 -0.083167806 0.69500005
0.024025146 -0.08328747 0.69600004
0.02522202 -0.083407134 0.69700003
0.026422231 -0.083526798 0.69800001
0.0276653 -0.083766133 0.70000005
0.028832661 -0.083766133 0.70000005
0.030085735 -0.08400546 0.70200002
0.031300955 -0.084125131 0.70300001
0.032565702 -0.084364466 0.70500004
0.033837117 -0.084603794 0.70700002
0.035065677 -0.084723458 0.708
0.036297578 -0.084843129 0.70900005
0.03753281 -0.084962793 0.71000004
0.038771376 -0.085082456 0.71100003
0.03995708 -0.085082456 0.71100003
0.041200649 -0.08520212 0.71200001
-0.081554234 -0.084486745 0.71600002
-0.080247961 -0.08436875 0.71500003
-0.078945018 -0.084250748 0.71400005
-0.077645414 -0.084132753 0.71300006
-0.076349139 -0.084014751 0.71200001
-0.075056203 -0.083896756 0.71100003
-0.073662706 -0.083660759 0.70900005
-0.072378106 -0.083542757 0.708
-0.071096845 -0.083424762 0.70700002
-0.06972003 -0.083188765 0.70500004
-0.068349876 -0.082952768 0.70300001
-0.067081958 -0.082834765 0.70200002
-0.065723479 -0.082598776 0.70000005
-0.064463899 -0.082480781 0.69900006
-0.063207649 -0.082362778 0.69800001
-0.061865851 -0.082126781 0.69600004
-0.060617939 -0.082008786 0.69500005
-0.059458919 -0.082008786 0.69500005
-0.058132127 -0.081772782 0.69300002
-0.056894224 -0.081654787 0.69200003
-0.055659655 -0.081536792 0.69100004
-0.054428425 -0.081418797 0.69000006
-0.053123314 -0.081182793 0.68800002
-0.05190042 -0.081064798 0.68700004
-0.050680861 -0.080946803 0.68600005
-0.049464639 -0.080828801 0.68500006
-0.048251748 -0.080710799 0.68400002
-0.047042191 -0.080592804 0.68300003
-0.045903184 -0.080592804 0.68300003
-0.044698633 -0.080474809 0.68200004
-0.043561291 -0.080474809 0.68200004
-0.042361747 -0.080356807 0.68100005
-0.041226074 -0.080356807 0.68100005
-0.040031526 -0.080238804 0.68000001
-0.03884032 -0.080120809 0.67900002
-0.037707977 -0.080120809 0.67900002
-0.036575638 -0.080120809 0.67900002
-0.035391103 -0.080002815 0.67800003
-0.034260429 -0.080002815 0.67800003
-0.033080898 -0.079884812 0.67700005
-0.031951893 -0.079884812 0.67700005
-0.030822888 -0.079884812 0.67700005
-0.029693885 -0.079884812 0.67700005
-0.028564882 -0.079884812 0.67700005
-0.027435878 -0.079884812 0.67700005
-0.026306873 -0.079884812 0.67700005
-0.02517787 -0.079884812 0.67700005
-0.024048867 -0.079884812 0.67700005
-0.022919863 -0.079884812 0.67700005
-0.02179086 -0.079884812 0.67700005
-0.020631336 -0.079766817 0.67600006
-0.019504001 -0.079766817 0.67600006
-0.018376663 -0.079766817 0.67600006
-0.017249329 -0.079766817 0.67600006
-0.016121993 -0.079766817 0.67600006
-0.014994656 -0.079766817 0.67600006
-0.01386732 -0.079766817 0.67600006
-0.012739983 -0.079766817 0.67600006
-0.011612648 -0.079766817 0.67600006
-0.010485312 -0.079766817 0.67600006
-0.009371819 -0.079884812 0.67700005
-0.0082428157 -0.079884812 0.67700005
-0.0071138116 -0.079884812 0.67700005
-0.0059848079 -0.079884812 0.67700005
-0.0048558046 -0.079884812 0.67700005
-0.0037323057 -0.080002815 0.67800003
-0.0026016345 -0.080002815 0.67800003
-0.0014731326 -0.080120809 0.67900002
-0.00034079366 -0.080120809 0.67900002
0.00079271104 -0.080238804 0.68000001
0.001929551 -0.080356807 0.68100005
0.0030697263 -0.080474809 0.68200004
0.0042070686 -0.080474809 0.68200004
0.0053444104 -0.080474809 0.68200004
0.0064912564 -0.080592804 0.68300003
0.0076302658 -0.080592804 0.68300003
0.0087821139 -0.080710799 0.68400002
0.0099372994 -0.080828801 0.68500006
0.011095818 -0.080946803 0.68600005
0.012239831 -0.080946803 0.68600005
0.013403353 -0.081064798 0.68700004
0.014570212 -0.081182793 0.68800002
0.015763251 -0.081418797 0.69000006
0.016913934 -0.081418797 0.69000006
0.018116977 -0.081654787 0.69200003
0.019298844 -0.081772782 0.69300002
0.020484045 -0.081890784 0.69400001
0.021672584 -0.082008786 0.69500005
0.022864457 -0.082126781 0.69600004
0.024059664 -0.082244776 0.69700003
0.025258208 -0.082362778 0.69800001
0.026422231 -0.082362778 0.69800001
0.0276653 -0.082598776 0.70000005
0.028832661 -0.082598776 0.70000005
0.030085735 -0.082834765 0.70200002
0.031345479 -0.08307077 0.70400006
0.032565702 -0.083188765 0.70500004
0.033837117 -0.083424762 0.70700002
0.035065677 -0.083542757 0.708
0.036297578 -0.083660759 0.70900005
0.03753281 -0.083778754 0.71000004
0.038771376 -0.083896756 0.71100003
0.03995708 -0.083896756 0.71100003
0.041200649 -0.084014751 0.71200001
-0.081440337 -0.083176367 0.71500003
-0.080247961 -0.083176367 0.71500003
-0.078945018 -0.083060041 0.71400005
-0.077645414 -0.082943708 0.71300006
-0.076349139 -0.082827374 0.71200001
-0.075056203 -0.082711041 0.71100003
-0.073662706 -0.082478389 0.70900005
-0.072378106 -0.082362048 0.708
-0.071096845 -0.082245722 0.70700002
-0.06972003 -0.082013063 0.70500004
-0.068447106 -0.081896737 0.70400006
-0.067081958 -0.08166407 0.70200002
-0.065723479 -0.081431411 0.70000005
-0.064463899 -0.081315085 0.69900006
-0.063207649 -0.081198744 0.69800001
-0.06195474 -0.081082419 0.69700003
-0.060705159 -0.080966085 0.69600004
-0.059458919 -0.080849759 0.69500005
-0.058132127 -0.080617093 0.69300002
-0.056894224 -0.080500767 0.69200003
-0.055659655 -0.080384433 0.69100004
-0.054428425 -0.080268107 0.69000006
-0.053200524 -0.080151767 0.68900001
-0.051975965 -0.080035441 0.68800002
-0.050680861 -0.079802781 0.68600005
-0.04953685 -0.079802781 0.68600005
-0.048322294 -0.079686455 0.68500006
-0.047111068 -0.079570115 0.68400002
-0.045903184 -0.079453789 0.68300003
-0.044764172 -0.079453789 0.68300003
-0.043561291 -0.079337463 0.68200004
-0.042423952 -0.079337463 0.68200004
-0.041226074 -0.079221129 0.68100005
-0.040090397 -0.079221129 0.68100005
-0.038897522 -0.079104796 0.68000001
-0.037707977 -0.078988463 0.67900002
-0.036575638 -0.078988463 0.67900002
-0.035443302 -0.078988463 0.67900002
-0.034260429 -0.078872137 0.67800003
-0.033129759 -0.078872137 0.67800003
-0.031999089 -0.078872137 0.67800003
-0.030868417 -0.078872137 0.67800003
-0.029737746 -0.078872137 0.67800003
-0.028607074 -0.078872137 0.67800003
-0.027476404 -0.078872137 0.67800003
-0.026306873 -0.078755811 0.67700005
-0.02517787 -0.078755811 0.67700005
-0.024048867 -0.078755811 0.67700005
-0.022919863 -0.078755811 0.67700005
-0.02179086 -0.078755811 0.67700005
-0.020661855 -0.078755811 0.67700005
-0.019532852 -0.078755811 0.67700005
-0.018376663 -0.078639477 0.67600006
-0.017249329 -0.078639477 0.67600006
-0.016121993 -0.078639477 0.67600006
-0.014994656 -0.078639477 0.67600006
-0.01386732 -0.078639477 0.67600006
-0.012739983 -0.078639477 0.67600006
-0.011612648 -0.078639477 0.67600006
-0.010485312 -0.078639477 0.67600006
-0.009371819 -0.078755811 0.67700005
-0.0082428157 -0.078755811 0.67700005
-0.0071033039 -0.078639477 0.67600006
-0.0059848079 -0.078755811 0.67700005
-0.0048558046 -0.078755811 0.67700005
-0.0037323057 -0.078872137 0.67800003
-0.0026016345 -0.078872137 0.67800003
-0.0014731326 -0.078988463 0.67900002
-0.00034079366 -0.078988463 0.67900002
0.00079271104 -0.079104796 0.68000001
0.001929551 -0.079221129 0.68100005
0.0030697263 -0.079337463 0.68200004
0.0042070686 -0.079337463 0.68200004
0.0053522466 -0.079453789 0.68300003
0.0064912564 -0.079453789 0.68300003
0.0076414375 -0.079570115 0.68400002
0.008794954 -0.079686455 0.68500006
0.0099372994 -0.079686455 0.68500006
0.011095818 -0.079802781 0.68600005
0.012257674 -0.079919115 0.68700004
0.013422864 -0.080035441 0.68800002
0.014591389 -0.080151767 0.68900001
0.015763251 -0.080268107 0.69000006
0.016938446 -0.080384433 0.69100004
0.018116977 -0.080500767 0.69200003
0.019326692 -0.080733426 0.69400001
0.020513562 -0.080849759 0.69500005
0.021672584 -0.080849759 0.69500005
0.022864457 -0.080966085 0.69600004
0.024059664 -0.081082419 0.69700003
0.025258208 -0.081198744 0.69800001
0.026460087 -0.081315085 0.69900006
0.0276653 -0.081431411 0.70000005
0.028873852 -0.081547737 0.70100003
0.030085735 -0.08166407 0.70200002
0.031345479 -0.081896737 0.70400006
0.032565702 -0.082013063 0.70500004
0.033837117 -0.082245722 0.70700002
0.035065677 -0.082362048 0.708
0.036297578 -0.082478389 0.70900005
0.03753281 -0.082594715 0.71000004
0.038771376 -0.082711041 0.71100003
0.03995708 -0.082711041 0.71100003
0.041200649 -0.082827374 0.71200001
-0.084059559 -0.08221332 0.71700001
-0.082748279 -0.082098655 0.71600002
-0.081440337 -0.081983991 0.71500003
-0.080247961 -0.081983991 0.71500003
-0.078945018 -0.081869334 0.71400005
-0.077645414 -0.08175467 0.71300006
-0.076349139 -0.081640005 0.71200001
-0.075056203 -0.081525341 0.71100003
-0.073662706 -0.081296019 0.70900005
-0.072378106 -0.081181347 0.708
-0.071096845 -0.08106669 0.70700002
-0.06972003 -0.080837369 0.70500004
-0.068447106 -0.080722705 0.70400006
-0.067081958 -0.080493376 0.70200002
-0.065817371 -0.080378711 0.70100003
-0.064463899 -0.08014939 0.69900006
-0.063207649 -0.080034725 0.69800001
-0.06195474 -0.079920061 0.69700003
-0.060705159 -0.079805396 0.69600004
-0.059458919 -0.07969074 0.69500005
-0.058216009 -0.079576068 0.69400001
-0.056976441 -0.079461411 0.69300002
-0.055740207 -0.079346746 0.69200003
-0.054428425 -0.079117425 0.69000006
-0.053200524 -0.079002753 0.68900001
-0.051975965 -0.078888096 0.68800002
-0.050754741 -0.078773431 0.68700004
-0.04953685 -0.078658767 0.68600005
-0.048322294 -0.07854411 0.68500006
-0.047179945 -0.07854411 0.68500006
-0.045970391 -0.078429438 0.68400002
-0.044764172 -0.078314781 0.68300003
-0.043625165 -0.078314781 0.68300003
-0.042423952 -0.078200117 0.68200004
-0.04128661 -0.078200117 0.68200004
-0.040090397 -0.07808546 0.68100005
-0.038954724 -0.07808546 0.68100005
-0.03776351 -0.077970788 0.68000001
-0.036575638 -0.077856123 0.67900002
-0.035443302 -0.077856123 0.67900002
-0.034310963 -0.077856123 0.67900002
-0.033129759 -0.077741466 0.67800003
-0.031999089 -0.077741466 0.67800003
-0.030868417 -0.077741466 0.67800003
-0.029737746 -0.077741466 0.67800003
-0.028607074 -0.077741466 0.67800003
-0.027435878 -0.077626802 0.67700005
-0.026306873 -0.077626802 0.67700005
-0.02517787 -0.077626802 0.67700005
-0.024048867 -0.077626802 0.67700005
-0.022919863 -0.077626802 0.67700005
-0.02179086 -0.077626802 0.67700005
-0.020631336 -0.077512145 0.67600006
-0.019532852 -0.077626802 0.67700005
-0.018376663 -0.077512145 0.67600006
-0.017249329 -0.077512145 0.67600006
-0.016121993 -0.077512145 0.67600006
-0.015016837 -0.077626802 0.67700005
-0.013887834 -0.077626802 0.67700005
-0.01275883 -0.077626802 0.67700005
-0.011629826 -0.077626802 0.67700005
-0.010500822 -0.077626802 0.67700005
-0.009371819 -0.077626802 0.67700005
-0.0082428157 -0.077626802 0.67700005
-0.0071138116 -0.077626802 0.67700005
-0.0059848079 -0.077626802 0.67700005
-0.0048629767 -0.077741466 0.67800003
-0.0037323057 -0.077741466 0.67800003
-0.0026054715 -0.077856123 0.67900002
-0.0014731326 -0.077856123 0.67900002
-0.00034129556 -0.077970788 0.68000001
0.00079271104 -0.077970788 0.68000001
0.0019323844 -0.078200117 0.68200004
0.0030697263 -0.078200117 0.68200004
0.0042132372 -0.078314781 0.68300003
0.0053522466 -0.078314781 0.68300003
0.0065007601 -0.078429438 0.68400002
0.0076526096 -0.07854411 0.68500006
0.008794954 -0.07854411 0.68500006
0.0099518057 -0.078658767 0.68600005
0.011095818 -0.078658767 0.68600005
0.012257674 -0.078773431 0.68700004
0.013442373 -0.079002753 0.68900001
0.014612568 -0.079117425 0.69000006
0.015763251 -0.079117425 0.69000006
0.016962958 -0.079346746 0.69200003
0.018143158 -0.079461411 0.69300002
0.019326692 -0.079576068 0.69400001
0.020513562 -0.07969074 0.69500005
0.021672584 -0.07969074 0.69500005
0.022864457 -0.079805396 0.69600004
0.024059664 -0.079920061 0.69700003
0.025258208 -0.080034725 0.69800001
0.026460087 -0.08014939 0.69900006
0.0276653 -0.080264054 0.70000005
0.028873852 -0.080378711 0.70100003
0.030085735 -0.080493376 0.70200002
0.031345479 -0.080722705 0.70400006
0.032565702 -0.080837369 0.70500004
0.033837117 -0.08106669 0.70700002
0.035065677 -0.081181347 0.708
0.036297578 -0.081296019 0.70900005
0.03753281 -0.081410676 0.71000004
0.038771376 -0.081525341 0.71100003
0.03995708 -0.081525341 0.71100003
0.041200649 -0.081640005 0.71200001
-0.084059559 -0.081017606 0.71700001
-0.082748279 -0.08090461 0.71600002
-0.081440337 -0.080791622 0.71500003
-0.080135725 -0.080678627 0.71400005
-0.078945018 -0.080678627 0.71400005
-0.077536508 -0.080452628 0.71200001
-0.076349139 -0.080452628 0.71200001
-0.075056203 -0.08033964 0.71100003
-0.073662706 -0.080113649 0.70900005
-0.072378106 -0.080000646 0.708
-0.071096845 -0.079887658 0.70700002
-0.06972003 -0.079661667 0.70500004
-0.068447106 -0.079548672 0.70400006
-0.067081958 -0.079322681 0.70200002
-0.065817371 -0.079209685 0.70100003
-0.064556122 -0.07909669 0.70000005
-0.063207649 -0.078870699 0.69800001
-0.06195474 -0.078757703 0.69700003
-0.060705159 -0.078644708 0.69600004
-0.059458919 -0.07853172 0.69500005
-0.058216009 -0.078418717 0.69400001
-0.056976441 -0.078305721 0.69300002
-0.055740207 -0.078192726 0.69200003
-0.054507308 -0.078079738 0.69100004
-0.053277742 -0.077966742 0.69000006
-0.052051511 -0.077853739 0.68900001
-0.050754741 -0.077627756 0.68700004
-0.04953685 -0.07751476 0.68600005
-0.048392836 -0.07751476 0.68600005
-0.047179945 -0.077401765 0.68500006
-0.045970391 -0.077288762 0.68400002
-0.044829715 -0.077288762 0.68400002
-0.043625165 -0.077175774 0.68300003
-0.042486154 -0.077175774 0.68300003
-0.04128661 -0.077062778 0.68200004
-0.040149268 -0.077062778 0.68200004
-0.038954724 -0.076949783 0.68100005
-0.03781905 -0.076949783 0.68100005
-0.036629505 -0.07683678 0.68000001
-0.035443302 -0.076723792 0.67900002
-0.034310963 -0.076723792 0.67900002
-0.033178624 -0.076723792 0.67900002
-0.031999089 -0.076610796 0.67800003
-0.030868417 -0.076610796 0.67800003
-0.029737746 -0.076610796 0.67800003
-0.028607074 -0.076610796 0.67800003
-0.027476404 -0.076610796 0.67800003
-0.02634573 -0.076610796 0.67800003
-0.02521506 -0.076610796 0.67800003
-0.024048867 -0.076497801 0.67700005
-0.022919863 -0.076497801 0.67700005
-0.02179086 -0.076497801 0.67700005
-0.020661855 -0.076497801 0.67700005
-0.019532852 -0.076497801 0.67700005
-0.018403849 -0.076497801 0.67700005
-0.017249329 -0.076384805 0.67600006
-0.016121993 -0.076384805 0.67600006
-0.015016837 -0.076497801 0.67700005
-0.013887834 -0.076497801 0.67700005
-0.01275883 -0.076497801 0.67700005
-0.011629826 -0.076497801 0.67700005
-0.010500822 -0.076497801 0.67700005
-0.009371819 -0.076497801 0.67700005
-0.0082428157 -0.076497801 0.67700005
-0.0071138116 -0.076497801 0.67700005
-0.0059848079 -0.076497801 0.67700005
-0.0048629767 -0.076610796 0.67800003
-0.0037378105 -0.076723792 0.67900002
-0.0026054715 -0.076723792 0.67900002
-0.0014731326 -0.076723792 0.67900002
-0.00034129556 -0.07683678 0.68000001
0.00079387682 -0.076949783 0.68100005
0.0019323844 -0.077062778 0.68200004
0.0030697263 -0.077062778 0.68200004
0.0042132372 -0.077175774 0.68300003
0.0053600827 -0.077288762 0.68400002
0.0065007601 -0.077288762 0.68400002
0.0076526096 -0.077401765 0.68500006
0.0088077933 -0.07751476 0.68600005
0.0099518057 -0.07751476 0.68600005
0.011111992 -0.077627756 0.68700004
0.012275516 -0.077740744 0.68800002
0.013442373 -0.077853739 0.68900001
0.014612568 -0.077966742 0.69000006
0.015786096 -0.078079738 0.69100004
0.016962958 -0.078192726 0.69200003
0.018143158 -0.078305721 0.69300002
0.019354541 -0.07853172 0.69500005
0.020513562 -0.07853172 0.69500005
0.021703769 -0.078644708 0.69600004
0.022897309 -0.078757703 0.69700003
0.024059664 -0.078757703 0.69700003
0.025258208 -0.078870699 0.69800001
0.026460087 -0.078983702 0.69900006
0.0276653 -0.07909669 0.70000005
0.028873852 -0.079209685 0.70100003
0.030128591 -0.079435676 0.70300001
0.031345479 -0.079548672 0.70400006
0.032611895 -0.079774663 0.70600003
0.033837117 -0.079887658 0.70700002
0.035065677 -0.080000646 0.708
0.036297578 -0.080113649 0.70900005
0.03753281 -0.080226645 0.71000004
0.038771376 -0.08033964 0.71100003
0.03995708 -0.08033964 0.71100003
0.041200649 -0.080452628 0.71200001
-0.083942316 -0.079710573 0.71600002
-0.082632706 -0.079599246 0.71500003
-0.081326433 -0.07948792 0.71400005
-0.080135725 -0.07948792 0.71400005
-0.078945018 -0.07948792 0.71400005
-0.077536508 -0.079265259 0.71200001
-0.076349139 -0.079265259 0.71200001
-0.075056203 -0.079153933 0.71100003
-0.073766604 -0.079042606 0.71000004
-0.072378106 -0.078819945 0.708
-0.071096845 -0.078708626 0.70700002
-0.069818921 -0.0785973 0.70600003
-0.068447106 -0.078374647 0.70400006
-0.067177512 -0.078263313 0.70300001
-0.065817371 -0.078040659 0.70100003
-0.064556122 -0.077929333 0.70000005
-0.063298211 -0.077818006 0.69900006
-0.06195474 -0.077595346 0.69700003
-0.060705159 -0.077484019 0.69600004
-0.059458919 -0.077372693 0.69500005
-0.058299899 -0.077372693 0.69500005
-0.057058655 -0.077261366 0.69400001
-0.055820756 -0.077150039 0.69300002
-0.054586187 -0.077038713 0.69200003
-0.053277742 -0.07681606 0.69000006
-0.052051511 -0.076704726 0.68900001
-0.050828617 -0.076593399 0.68800002
-0.049609061 -0.076482072 0.68700004
-0.048392836 -0.076370746 0.68600005
-0.047248822 -0.076370746 0.68600005
-0.046037599 -0.076259419 0.68500006
-0.044829715 -0.076148085 0.68400002
-0.043689035 -0.076148085 0.68400002
-0.042486154 -0.076036759 0.68300003
-0.04128661 -0.075925432 0.68200004
-0.040149268 -0.075925432 0.68200004
-0.039011925 -0.075925432 0.68200004
-0.03781905 -0.075814106 0.68100005
-0.036629505 -0.075702779 0.68000001
-0.035495501 -0.075702779 0.68000001
-0.034310963 -0.075591452 0.67900002
-0.033178624 -0.075591452 0.67900002
-0.032046285 -0.075591452 0.67900002
-0.030913943 -0.075591452 0.67900002
-0.029737746 -0.075480126 0.67800003
-0.028649267 -0.075591452 0.67900002
-0.027476404 -0.075480126 0.67800003
-0.02634573 -0.075480126 0.67800003
-0.02521506 -0.075480126 0.67800003
-0.024084389 -0.075480126 0.67800003
-0.022953719 -0.075480126 0.67800003
-0.021823047 -0.075480126 0.67800003
-0.020692375 -0.075480126 0.67800003
-0.019532852 -0.075368799 0.67700005
-0.018403849 -0.075368799 0.67700005
-0.017274845 -0.075368799 0.67700005
-0.016145842 -0.075368799 0.67700005
-0.015016837 -0.075368799 0.67700005
-0.013887834 -0.075368799 0.67700005
-0.01275883 -0.075368799 0.67700005
-0.011629826 -0.075368799 0.67700005
-0.010500822 -0.075368799 0.67700005
-0.009371819 -0.075368799 0.67700005
-0.0082549909 -0.075480126 0.67800003
-0.0071243197 -0.075480126 0.67800003
-0.005993648 -0.075480126 0.67800003
-0.0048701493 -0.075591452 0.67900002
-0.0037378105 -0.075591452 0.67900002
-0.0026054715 -0.075591452 0.67900002
-0.0014753022 -0.075702779 0.68000001
-0.00034129556 -0.075702779 0.68000001
0.00079387682 -0.075814106 0.68100005
0.0019323844 -0.075925432 0.68200004
0.0030742274 -0.076036759 0.68300003
0.0042194058 -0.076148085 0.68400002
0.0053600827 -0.076148085 0.68400002
0.0065102647 -0.076259419 0.68500006
0.0076637813 -0.076370746 0.68600005
0.0088077933 -0.076370746 0.68600005
0.0099663129 -0.076482072 0.68700004
0.011128167 -0.076593399 0.68800002
0.012293358 -0.076704726 0.68900001
0.013461884 -0.07681606 0.69000006
0.014633745 -0.076927386 0.69100004
0.01580894 -0.077038713 0.69200003
0.016987471 -0.077150039 0.69300002
0.018169338 -0.077261366 0.69400001
0.019354541 -0.077372693 0.69500005
0.020513562 -0.077372693 0.69500005
0.021703769 -0.077484019 0.69600004
0.022897309 -0.077595346 0.69700003
0.024094183 -0.077706672 0.69800001
0.025294395 -0.077818006 0.69900006
0.026497941 -0.077929333 0.70000005
0.0276653 -0.077929333 0.70000005
0.02891504 -0.078151986 0.70200002
0.030128591 -0.078263313 0.70300001
0.031345479 -0.078374647 0.70400006
0.032611895 -0.0785973 0.70600003
0.033837117 -0.078708626 0.70700002
0.035065677 -0.078819945 0.708
0.036297578 -0.078931279 0.70900005
0.03753281 -0.079042606 0.71000004
0.038771376 -0.079153933 0.71100003
0.03995708 -0.079153933 0.71100003
0.041200649 -0.079265259 0.71200001
-0.083942316 -0.078516528 0.71600002
-0.082632706 -0.07840687 0.71500003
-0.081440337 -0.07840687 0.71500003
-0.080135725 -0.078297213 0.71400005
-0.078834452 -0.078187555 0.71300006
-0.077645414 -0.078187555 0.71300006
-0.076349139 -0.07807789 0.71200001
-0.075056203 -0.077968232 0.71100003
-0.073766604 -0.077858575 0.71000004
-0.072378106 -0.077639252 0.708
-0.071096845 -0.077529587 0.70700002
-0.069818921 -0.077419929 0.70600003
-0.068447106 -0.077200614 0.70400006
-0.067177512 -0.077090949 0.70300001
-0.065817371 -0.076871634 0.70100003
-0.064556122 -0.076761976 0.70000005
-0.063298211 -0.076652318 0.69900006
-0.062043626 -0.076542653 0.69800001
-0.060792379 -0.076432988 0.69700003
-0.05954447 -0.07632333 0.69600004
-0.058299899 -0.076213673 0.69500005
-0.057058655 -0.076104008 0.69400001
-0.055820756 -0.07599435 0.69300002
-0.054586187 -0.075884692 0.69200003
-0.053354956 -0.075775035 0.69100004
-0.05212706 -0.075665377 0.69000006
-0.050902497 -0.075555712 0.68900001
-0.049681269 -0.075446054 0.68800002
-0.048392836 -0.075226732 0.68600005
-0.047248822 -0.075226732 0.68600005
-0.046037599 -0.075117074 0.68500006
-0.044895258 -0.075117074 0.68500006
-0.043689035 -0.075007409 0.68400002
-0.042486154 -0.074897751 0.68300003
-0.041347146 -0.074897751 0.68300003
-0.040149268 -0.074788094 0.68200004
-0.039011925 -0.074788094 0.68200004
-0.037874583 -0.074788094 0.68200004
-0.036683373 -0.074678436 0.68100005
-0.035495501 -0.074568771 0.68000001
-0.034361493 -0.074568771 0.68000001
-0.033178624 -0.074459113 0.67900002
-0.032046285 -0.074459113 0.67900002
-0.030913943 -0.074459113 0.67900002
-0.029781606 -0.074459113 0.67900002
-0.028649267 -0.074459113 0.67900002
-0.027516929 -0.074459113 0.67900002
-0.026384588 -0.074459113 0.67900002
-0.025252249 -0.074459113 0.67900002
-0.024119912 -0.074459113 0.67900002
-0.022987572 -0.074459113 0.67900002
-0.021823047 -0.074349456 0.67800003
-0.020692375 -0.074349456 0.67800003
-0.019561704 -0.074349456 0.67800003
-0.018431032 -0.074349456 0.67800003
-0.017274845 -0.074239798 0.67700005
-0.016145842 -0.074239798 0.67700005
-0.015039018 -0.074349456 0.67800003
-0.013908348 -0.074349456 0.67800003
-0.012777676 -0.074349456 0.67800003
-0.011647005 -0.074349456 0.67800003
-0.010516333 -0.074349456 0.67800003
-0.0093856622 -0.074349456 0.67800003
-0.0082671661 -0.074459113 0.67900002
-0.0071348273 -0.074459113 0.67900002
-0.0060024881 -0.074459113 0.67900002
-0.0048701493 -0.074459113 0.67900002
-0.0037378105 -0.074459113 0.67900002
-0.0026093088 -0.074568771 0.68000001
-0.0014753022 -0.074568771 0.68000001
-0.00034179748 -0.074678436 0.68100005
0.00079504255 -0.074788094 0.68200004
0.0019352178 -0.074897751 0.68300003
0.0030787284 -0.075007409 0.68400002
0.0042194058 -0.075007409 0.68400002
0.0053679193 -0.075117074 0.68500006
0.0065197684 -0.075226732 0.68600005
0.0076637813 -0.075226732 0.68600005
0.0088206325 -0.075336397 0.68700004
0.0099808201 -0.075446054 0.68800002
0.011144342 -0.075555712 0.68900001
0.012311201 -0.075665377 0.69000006
0.013461884 -0.075665377 0.69000006
0.014633745 -0.075775035 0.69100004
0.015831785 -0.07599435 0.69300002
0.017011983 -0.076104008 0.69400001
0.018169338 -0.076104008 0.69400001
0.019354541 -0.076213673 0.69500005
0.020543078 -0.07632333 0.69600004
0.021734951 -0.076432988 0.69700003
0.022897309 -0.076432988 0.69700003
0.024094183 -0.076542653 0.69800001
0.025294395 -0.076652318 0.69900006
0.026497941 -0.076761976 0.70000005
0.027704822 -0.076871634 0.70100003
0.02891504 -0.076981291 0.70200002
0.03017145 -0.077200614 0.70400006
0.031390004 -0.077310272 0.70500004
0.032611895 -0.077419929 0.70600003
0.033837117 -0.077529587 0.70700002
0.035065677 -0.077639252 0.708
0.036297578 -0.077748917 0.70900005
0.03753281 -0.077858575 0.71000004
0.038771376 -0.077968232 0.71100003
0.03995708 -0.077968232 0.71100003
0.041200649 -0.07807789 0.71200001
-0.083942316 -0.077322491 0.71600002
-0.08251714 -0.077106506 0.71400005
-0.081440337 -0.077214494 0.71500003
-0.080135725 -0.077106506 0.71400005
-0.078945018 -0.077106506 0.71400005
-0.077645414 -0.076998517 0.71300006
-0.076349139 -0.076890521 0.71200001
-0.075056203 -0.076782525 0.71100003
-0.073766604 -0.076674536 0.71000004
-0.072480336 -0.076566547 0.70900005
-0.071197405 -0.076458551 0.708
-0.069818921 -0.076242566 0.70600003
-0.068544328 -0.076134577 0.70500004
-0.067177512 -0.075918585 0.70300001
-0.065817371 -0.075702608 0.70100003
-0.064556122 -0.075594611 0.70000005
-0.063298211 -0.075486623 0.69900006
-0.062043626 -0.075378627 0.69800001
-0.060792379 -0.075270638 0.69700003
-0.05954447 -0.075162642 0.69600004
-0.058299899 -0.075054653 0.69500005
-0.057140876 -0.075054653 0.69500005
-0.055820756 -0.074838668 0.69300002
-0.054586187 -0.074730672 0.69200003
-0.053354956 -0.074622683 0.69100004
-0.05212706 -0.074514695 0.69000006
-0.050902497 -0.074406698 0.68900001
-0.049681269 -0.074298702 0.68800002
-0.048463382 -0.074190713 0.68700004
-0.047248822 -0.074082725 0.68600005
-0.046104807 -0.074082725 0.68600005
-0.044895258 -0.073974729 0.68500006
-0.043689035 -0.073866732 0.68400002
-0.042548358 -0.073866732 0.68400002
-0.041347146 -0.073758744 0.68300003
-0.040208139 -0.073758744 0.68300003
-0.039011925 -0.073650755 0.68200004
-0.037874583 -0.073650755 0.68200004
-0.036737241 -0.073650755 0.68200004
-0.0355477 -0.073542759 0.68100005
-0.034361493 -0.073434763 0.68000001
-0.033227488 -0.073434763 0.68000001
-0.03209348 -0.073434763 0.68000001
-0.030913943 -0.073326774 0.67900002
-0.029781606 -0.073326774 0.67900002
-0.028649267 -0.073326774 0.67900002
-0.027516929 -0.073326774 0.67900002
-0.026384588 -0.073326774 0.67900002
-0.025252249 -0.073326774 0.67900002
-0.024119912 -0.073326774 0.67900002
-0.022987572 -0.073326774 0.67900002
-0.021855233 -0.073326774 0.67900002
-0.020692375 -0.073218785 0.67800003
-0.019561704 -0.073218785 0.67800003
-0.018431032 -0.073218785 0.67800003
-0.017300362 -0.073218785 0.67800003
-0.01616969 -0.073218785 0.67800003
-0.015039018 -0.073218785 0.67800003
-0.013908348 -0.073218785 0.67800003
-0.012777676 -0.073218785 0.67800003
-0.011647005 -0.073218785 0.67800003
-0.010531844 -0.073326774 0.67900002
-0.0093995053 -0.073326774 0.67900002
-0.0082671661 -0.073326774 0.67900002
-0.0071348273 -0.073326774 0.67900002
-0.0060024881 -0.073326774 0.67900002
-0.0048773219 -0.073434763 0.68000001
-0.0037433153 -0.073434763 0.68000001
-0.0026131461 -0.073542759 0.68100005
-0.0014774719 -0.073542759 0.68100005
-0.00034229938 -0.073650755 0.68200004
0.00079504255 -0.073650755 0.68200004
0.0019380512 -0.073866732 0.68400002
0.0030787284 -0.073866732 0.68400002
0.0042255749 -0.073974729 0.68500006
0.005375756 -0.074082725 0.68600005
0.0065197684 -0.074082725 0.68600005
0.007674953 -0.074190713 0.68700004
0.0088334717 -0.074298702 0.68800002
0.0099953264 -0.074406698 0.68900001
0.011160517 -0.074514695 0.69000006
0.012311201 -0.074514695 0.69000006
0.013481393 -0.074622683 0.69100004
0.014654922 -0.074730672 0.69200003
0.015831785 -0.074838668 0.69300002
0.017011983 -0.074946657 0.69400001
0.018195521 -0.075054653 0.69500005
0.019354541 -0.075054653 0.69500005
0.020543078 -0.075162642 0.69600004
0.021734951 -0.075270638 0.69700003
0.02293016 -0.075378627 0.69800001
0.024128703 -0.075486623 0.69900006
0.025330581 -0.075594611 0.70000005
0.026497941 -0.075594611 0.70000005
0.027704822 -0.075702608 0.70100003
0.028956229 -0.075918585 0.70300001
0.03017145 -0.076026581 0.70400006
0.031390004 -0.076134577 0.70500004
0.032658085 -0.076350555 0.70700002
0.03388498 -0.076458551 0.708
0.035065677 -0.076458551 0.708
0.036348775 -0.076674536 0.71000004
0.03753281 -0.076674536 0.71000004
0.038771376 -0.076782525 0.71100003
0.040013276 -0.076890521 0.71200001
0.041200649 -0.076890521 0.71200001
-0.083942316 -0.076128446 0.71600002
-0.08251714 -0.075915799 0.71400005
-0.081326433 -0.075915799 0.71400005
-0.080135725 -0.075915799 0.71400005
-0.078945018 -0.075915799 0.71400005
-0.077645414 -0.075809479 0.71300006
-0.076349139 -0.075703144 0.71200001
-0.075056203 -0.075596824 0.71100003
-0.073766604 -0.075490497 0.71000004
-0.072480336 -0.075384177 0.70900005
-0.071197405 -0.07527785 0.708
-0.069917813 -0.075171523 0.70700002
-0.068544328 -0.074958876 0.70500004
-0.067177512 -0.074746221 0.70300001
-0.065911263 -0.074639902 0.70200002
-0.064556122 -0.074427254 0.70000005
-0.063388765 -0.074427254 0.70000005
-0.062043626 -0.0742146 0.69800001
-0.060792379 -0.07410828 0.69700003
-0.05954447 -0.074001953 0.69600004
-0.058299899 -0.073895633 0.69500005
-0.057140876 -0.073895633 0.69500005
-0.055901304 -0.073789306 0.69400001
-0.05466507 -0.073682979 0.69300002
-0.05343217 -0.073576659 0.69200003
-0.05212706 -0.073364012 0.69000006
-0.050976377 -0.073364012 0.69000006
-0.049681269 -0.073151357 0.68800002
-0.048463382 -0.07304503 0.68700004
-0.047248822 -0.07293871 0.68600005
-0.046104807 -0.07293871 0.68600005
-0.044895258 -0.072832391 0.68500006
-0.043752912 -0.072832391 0.68500006
-0.042548358 -0.072726056 0.68400002
-0.041407682 -0.072726056 0.68400002
-0.040208139 -0.072619736 0.68300003
-0.039069127 -0.072619736 0.68300003
-0.037874583 -0.072513409 0.68200004
-0.036737241 -0.072513409 0.68200004
-0.035599899 -0.072513409 0.68200004
-0.034412026 -0.072407089 0.68100005
-0.033227488 -0.072300754 0.68000001
-0.03209348 -0.072300754 0.68000001
-0.030959472 -0.072300754 0.68000001
-0.029825466 -0.072300754 0.68000001
-0.028691459 -0.072300754 0.68000001
-0.027516929 -0.072194435 0.67900002
-0.026384588 -0.072194435 0.67900002
-0.025252249 -0.072194435 0.67900002
-0.024119912 -0.072194435 0.67900002
-0.022987572 -0.072194435 0.67900002
-0.021855233 -0.072194435 0.67900002
-0.020692375 -0.072088115 0.67800003
-0.019561704 -0.072088115 0.67800003
-0.018431032 -0.072088115 0.67800003
-0.017300362 -0.072088115 0.67800003
-0.01616969 -0.072088115 0.67800003
-0.015039018 -0.072088115 0.67800003
-0.013908348 -0.072088115 0.67800003
-0.012796521 -0.072194435 0.67900002
-0.011664183 -0.072194435 0.67900002
-0.010531844 -0.072194435 0.67900002
-0.0093995053 -0.072194435 0.67900002
-0.0082793413 -0.072300754 0.68000001
-0.0071348273 -0.072194435 0.67900002
-0.0060113282 -0.072300754 0.68000001
-0.0048844945 -0.072407089 0.68100005
-0.0037488204 -0.072407089 0.68100005
-0.0026169834 -0.072513409 0.68200004
-0.0014796414 -0.072513409 0.68200004
-0.00034229938 -0.072513409 0.68200004
0.00079620827 -0.072619736 0.68300003
0.0019380512 -0.072726056 0.68400002
0.0030832298 -0.072832391 0.68500006
0.0042317435 -0.07293871 0.68600005
0.005375756 -0.07293871 0.68600005
0.0065292725 -0.07304503 0.68700004
0.0076861242 -0.073151357 0.68800002
0.0088463109 -0.073257677 0.68900001
0.010009835 -0.073364012 0.69000006
0.011160517 -0.073364012 0.69000006
0.012329043 -0.073470332 0.69100004
0.013500903 -0.073576659 0.69200003
0.0146761 -0.073682979 0.69300002
0.015854631 -0.073789306 0.69400001
0.017036498 -0.073895633 0.69500005
0.018195521 -0.073895633 0.69500005
0.019382389 -0.074001953 0.69600004
0.020572593 -0.07410828 0.69700003
0.021734951 -0.07410828 0.69700003
0.02293016 -0.0742146 0.69800001
0.024128703 -0.074320935 0.69900006
0.025330581 -0.074427254 0.70000005
0.026535794 -0.074533582 0.70100003
0.027744344 -0.074639902 0.70200002
0.028956229 -0.074746221 0.70300001
0.030214306 -0.074958876 0.70500004
0.031434529 -0.075065203 0.70600003
0.032658085 -0.075171523 0.70700002
0.03388498 -0.07527785 0.708
0.035115208 -0.075384177 0.70900005
0.036348775 -0.075490497 0.71000004
0.037585672 -0.075596824 0.71100003
0.038825907 -0.075703144 0.71200001
0.040013276 -0.075703144 0.71200001
0.041258518 -0.075809479 0.71300006
-0.083942316 -0.074934408 0.71600002
-0.082632706 -0.07482975 0.71500003
-0.081326433 -0.074725091 0.71400005
-0.080135725 -0.074725091 0.71400005
-0.078945018 -0.074725091 0.71400005
-0.077645414 -0.074620441 0.71300006
-0.076349139 -0.074515775 0.71200001
-0.075056203 -0.074411124 0.71100003
-0.073766604 -0.074306466 0.71000004
-0.072480336 -0.074201807 0.70900005
-0.071197405 -0.074097149 0.708
-0.069917813 -0.073992491 0.70700002
-0.068544328 -0.073783182 0.70500004
-0.067273073 -0.073678523 0.70400006
-0.065911263 -0.073469207 0.70200002
-0.064648345 -0.073364548 0.70100003
-0.063388765 -0.073259898 0.70000005
-0.062132519 -0.073155239 0.69900006
-0.060879596 -0.073050581 0.69800001
-0.059630021 -0.072945923 0.69700003
-0.058383781 -0.072841264 0.69600004
-0.057140876 -0.072736613 0.69500005
-0.055901304 -0.072631948 0.69400001
-0.05466507 -0.072527297 0.69300002
-0.05343217 -0.072422639 0.69200003
-0.052202605 -0.07231798 0.69100004
-0.050976377 -0.072213329 0.69000006
-0.04975348 -0.072108664 0.68900001
-0.048533924 -0.072004013 0.68800002
-0.047317695 -0.071899354 0.68700004
-0.046104807 -0.071794696 0.68600005
-0.044960797 -0.071794696 0.68600005
-0.043752912 -0.071690045 0.68500006
-0.042548358 -0.07158538 0.68400002
-0.041407682 -0.07158538 0.68400002
-0.040267006 -0.07158538 0.68400002
-0.039069127 -0.071480729 0.68300003
-0.037930116 -0.071480729 0.68300003
-0.036737241 -0.07137607 0.68200004
-0.035599899 -0.07137607 0.68200004
-0.03446256 -0.07137607 0.68200004
-0.033325218 -0.07137607 0.68200004
-0.032140676 -0.071271412 0.68100005
-0.031005003 -0.071271412 0.68100005
-0.029869329 -0.071271412 0.68100005
-0.028691459 -0.071166754 0.68000001
-0.027557455 -0.071166754 0.68000001
-0.026384588 -0.071062095 0.67900002
-0.025252249 -0.071062095 0.67900002
-0.024119912 -0.071062095 0.67900002
-0.022987572 -0.071062095 0.67900002
-0.021855233 -0.071062095 0.67900002
-0.020692375 -0.070957437 0.67800003
-0.019561704 -0.070957437 0.67800003
-0.018431032 -0.070957437 0.67800003
-0.017300362 -0.070957437 0.67800003
-0.01616969 -0.070957437 0.67800003
-0.015039018 -0.070957437 0.67800003
-0.013928861 -0.071062095 0.67900002
-0.012796521 -0.071062095 0.67900002
-0.011664183 -0.071062095 0.67900002
-0.010547355 -0.071166754 0.68000001
-0.0094133485 -0.071166754 0.68000001
-0.0082793413 -0.071166754 0.68000001
-0.0071558431 -0.071271412 0.68100005
-0.0060201688 -0.071271412 0.68100005
-0.004891667 -0.07137607 0.68200004
-0.0037543252 -0.07137607 0.68200004
-0.0026169834 -0.07137607 0.68200004
-0.0014818109 -0.071480729 0.68300003
-0.00034280127 -0.071480729 0.68300003
0.00079737406 -0.07158538 0.68400002
0.0019408847 -0.071690045 0.68500006
0.0030877306 -0.071794696 0.68600005
0.0042317435 -0.071794696 0.68600005
0.0053835921 -0.071899354 0.68700004
0.0065387762 -0.072004013 0.68800002
0.0076972959 -0.072108664 0.68900001
0.008859151 -0.072213329 0.69000006
0.010009835 -0.072213329 0.69000006
0.011176691 -0.07231798 0.69100004
0.012329043 -0.07231798 0.69100004
0.013500903 -0.072422639 0.69200003
0.0146761 -0.072527297 0.69300002
0.015854631 -0.072631948 0.69400001
0.017036498 -0.072736613 0.69500005
0.018195521 -0.072736613 0.69500005
0.019382389 -0.072841264 0.69600004
0.020572593 -0.072945923 0.69700003
0.021766134 -0.073050581 0.69800001
0.022963012 -0.073155239 0.69900006
0.024163222 -0.073259898 0.70000005
0.025330581 -0.073259898 0.70000005
0.026573649 -0.073469207 0.70200002
0.027783863 -0.073573865 0.70300001
0.028997419 -0.073678523 0.70400006
0.030214306 -0.073783182 0.70500004
0.031479053 -0.073992491 0.70700002
0.032704279 -0.074097149 0.708
0.03388498 -0.074097149 0.708
0.035164736 -0.074306466 0.71000004
0.036399968 -0.074411124 0.71100003
0.037638534 -0.074515775 0.71200001
0.038880438 -0.074620441 0.71300006
0.040069479 -0.074620441 0.71300006
0.041316383 -0.074725091 0.71400005
-0.083942316 -0.073740363 0.71600002
-0.082632706 -0.073637374 0.71500003
-0.081440337 -0.073637374 0.71500003
-0.080135725 -0.073534384 0.71400005
-0.078945018 -0.073534384 0.71400005
-0.077645414 -0.073431402 0.71300006
-0.076349139 -0.073328406 0.71200001
-0.075161763 -0.073328406 0.71200001
-0.073870495 -0.073225416 0.71100003
-0.072480336 -0.073019437 0.70900005
-0.071197405 -0.072916448 0.708
-0.069917813 -0.072813459 0.70700002
-0.068641558 -0.072710469 0.70600003
-0.067273073 -0.072504498 0.70400006
-0.066005148 -0.072401501 0.70300001
-0.064648345 -0.072195522 0.70100003
-0.063388765 -0.072092533 0.70000005
-0.062132519 -0.071989551 0.69900006
-0.060879596 -0.071886554 0.69800001
-0.059630021 -0.071783565 0.69700003
-0.058383781 -0.071680576 0.69600004
-0.057140876 -0.071577594 0.69500005
-0.055901304 -0.071474597 0.69400001
-0.05466507 -0.071371607 0.69300002
-0.05343217 -0.071268618 0.69200003
-0.052202605 -0.071165629 0.69100004
-0.050976377 -0.071062647 0.69000006
-0.04975348 -0.07095965 0.68900001
-0.048533924 -0.070856661 0.68800002
-0.047317695 -0.070753671 0.68700004
-0.046104807 -0.070650689 0.68600005
-0.044960797 -0.070650689 0.68600005
-0.043752912 -0.0705477 0.68500006
-0.042610567 -0.0705477 0.68500006
-0.041407682 -0.070444703 0.68400002
-0.040267006 -0.070444703 0.68400002
-0.039126329 -0.070444703 0.68400002
-0.037985649 -0.070444703 0.68400002
-0.036791109 -0.070341714 0.68300003
-0.035652097 -0.070341714 0.68300003
-0.03446256 -0.070238724 0.68200004
-0.033325218 -0.070238724 0.68200004
-0.032187872 -0.070238724 0.68200004
-0.031050531 -0.070238724 0.68200004
-0.029869329 -0.070135742 0.68100005
-0.028733656 -0.070135742 0.68100005
-0.027557455 -0.070032746 0.68000001
-0.026423445 -0.070032746 0.68000001
-0.025289439 -0.070032746 0.68000001
-0.024155432 -0.070032746 0.68000001
-0.022987572 -0.069929756 0.67900002
-0.021855233 -0.069929756 0.67900002
-0.020722894 -0.069929756 0.67900002
-0.019561704 -0.069826767 0.67800003
-0.018431032 -0.069826767 0.67800003
-0.017300362 -0.069826767 0.67800003
-0.016193539 -0.069929756 0.67900002
-0.0150612 -0.069929756 0.67900002
-0.013928861 -0.069929756 0.67900002
-0.012796521 -0.069929756 0.67900002
-0.011681361 -0.070032746 0.68000001
-0.010547355 -0.070032746 0.68000001
-0.0094271917 -0.070135742 0.68100005
-0.0082915174 -0.070135742 0.68100005
-0.0071663507 -0.070238724 0.68200004
-0.0060290089 -0.070238724 0.68200004
-0.004891667 -0.070238724 0.68200004
-0.00375983 -0.070341714 0.68300003
-0.0026208204 -0.070341714 0.68300003
-0.0014818109 -0.070341714 0.68300003
-0.00034330317 -0.070444703 0.68400002
0.00079853984 -0.0705477 0.68500006
0.0019437181 -0.070650689 0.68600005
0.0030877306 -0.070650689 0.68600005
0.0042379121 -0.070753671 0.68700004
0.0053914282 -0.070856661 0.68800002
0.0065482804 -0.07095965 0.68900001
0.007708468 -0.071062647 0.69000006
0.008859151 -0.071062647 0.69000006
0.010009835 -0.071062647 0.69000006
0.011176691 -0.071165629 0.69100004
0.012346885 -0.071268618 0.69200003
0.013520413 -0.071371607 0.69300002
0.014697277 -0.071474597 0.69400001
0.015877476 -0.071577594 0.69500005
0.017036498 -0.071577594 0.69500005
0.018221701 -0.071680576 0.69600004
0.019410238 -0.071783565 0.69700003
0.020572593 -0.071783565 0.69700003
0.021766134 -0.071886554 0.69800001
0.022963012 -0.071989551 0.69900006
0.024163222 -0.072092533 0.70000005
0.025366768 -0.072195522 0.70100003
0.026573649 -0.072298512 0.70200002
0.027823389 -0.072504498 0.70400006
0.02903861 -0.07260748 0.70500004
0.030257164 -0.072710469 0.70600003
0.031523578 -0.072916448 0.708
0.032704279 -0.072916448 0.708
0.033932839 -0.073019437 0.70900005
0.035214264 -0.073225416 0.71100003
0.036451165 -0.073328406 0.71200001
0.037691399 -0.073431402 0.71300006
0.038880438 -0.073431402 0.71300006
0.040125675 -0.073534384 0.71400005
0.041374248 -0.073637374 0.71500003
0.042566624 -0.073637374 0.71500003
-0.083942316 -0.072546318 0.71600002
-0.082632706 -0.072444998 0.71500003
-0.081440337 -0.072444998 0.71500003
-0.080135725 -0.072343677 0.71400005
-0.078945018 -0.072343677 0.71400005
-0.077645414 -0.072242357 0.71300006
-0.076349139 -0.072141036 0.71200001
-0.075161763 -0.072141036 0.71200001
-0.073870495 -0.072039716 0.71100003
-0.072582565 -0.071938396 0.71000004
-0.071297973 -0.071837075 0.70900005
-0.070016704 -0.071735747 0.708
-0.068641558 -0.071533106 0.70600003
-0.067368634 -0.071431786 0.70500004
-0.066005148 -0.071229137 0.70300001
-0.064740568 -0.071127817 0.70200002
-0.063479319 -0.071026497 0.70100003
-0.062221404 -0.070925176 0.70000005
-0.06096682 -0.070823856 0.69900006
-0.059715573 -0.070722528 0.69800001
-0.058467664 -0.070621207 0.69700003
-0.057223093 -0.070519887 0.69600004
-0.055981856 -0.070418566 0.69500005
-0.054743949 -0.070317246 0.69400001
-0.053509384 -0.070215926 0.69300002
-0.05227815 -0.070114605 0.69200003
-0.051050257 -0.070013285 0.69100004
-0.049825694 -0.069911964 0.69000006
-0.048604466 -0.069810636 0.68900001
-0.047386572 -0.069709316 0.68800002
-0.046172015 -0.069607995 0.68700004
-0.044960797 -0.069506675 0.68600005
-0.043816783 -0.069506675 0.68600005
-0.042672772 -0.069506675 0.68600005
-0.041468222 -0.069405355 0.68500006
-0.04032588 -0.069405355 0.68500006
-0.039183535 -0.069405355 0.68500006
-0.037985649 -0.069304027 0.68400002
-0.036844973 -0.069304027 0.68400002
-0.035704296 -0.069304027 0.68400002
-0.03451309 -0.069202706 0.68300003
-0.033374079 -0.069202706 0.68300003
-0.032187872 -0.069101386 0.68200004
-0.031050531 -0.069101386 0.68200004
-0.029913189 -0.069101386 0.68200004
-0.028775848 -0.069101386 0.68200004
-0.027597982 -0.069000065 0.68100005
-0.026462305 -0.069000065 0.68100005
-0.025289439 -0.068898737 0.68000001
-0.024155432 -0.068898737 0.68000001
-0.023021428 -0.068898737 0.68000001
-0.021887422 -0.068898737 0.68000001
-0.020722894 -0.068797417 0.67900002
-0.019590557 -0.068797417 0.67900002
-0.018458216 -0.068797417 0.67900002
-0.017325878 -0.068797417 0.67900002
-0.016193539 -0.068797417 0.67900002
-0.0150612 -0.068797417 0.67900002
-0.013928861 -0.068797417 0.67900002
-0.012815367 -0.068898737 0.68000001
-0.011681361 -0.068898737 0.68000001
-0.010562866 -0.069000065 0.68100005
-0.0094271917 -0.069000065 0.68100005
-0.0083036935 -0.069101386 0.68200004
-0.0071663507 -0.069101386 0.68200004
-0.0060290089 -0.069101386 0.68200004
-0.0048988396 -0.069202706 0.68300003
-0.00375983 -0.069202706 0.68300003
-0.0026246577 -0.069304027 0.68400002
-0.0014839804 -0.069304027 0.68400002
-0.00034330317 -0.069304027 0.68400002
0.00079853984 -0.069405355 0.68500006
0.0019437181 -0.069506675 0.68600005
0.0030922317 -0.069607995 0.68700004
0.0042379121 -0.069607995 0.68700004
0.0053914282 -0.069709316 0.68800002
0.0065482804 -0.069810636 0.68900001
0.007708468 -0.069911964 0.69000006
0.008859151 -0.069911964 0.69000006
0.010024341 -0.070013285 0.69100004
0.011192866 -0.070114605 0.69200003
0.012364727 -0.070215926 0.69300002
0.013520413 -0.070215926 0.69300002
0.014697277 -0.070317246 0.69400001
0.015877476 -0.070418566 0.69500005
0.017036498 -0.070418566 0.69500005
0.018221701 -0.070519887 0.69600004
0.019410238 -0.070621207 0.69700003
0.020602109 -0.070722528 0.69800001
0.02179732 -0.070823856 0.69900006
0.022995863 -0.070925176 0.70000005
0.02419774 -0.071026497 0.70100003
0.025402954 -0.071127817 0.70200002
0.026611501 -0.071229137 0.70300001
0.027823389 -0.071330465 0.70400006
0.029079799 -0.071533106 0.70600003
0.030300019 -0.071634427 0.70700002
0.031523578 -0.071735747 0.708
0.032750472 -0.071837075 0.70900005
0.033980701 -0.071938396 0.71000004
0.035214264 -0.072039716 0.71100003
0.036502361 -0.072242357 0.71300006
0.037744261 -0.072343677 0.71400005
0.038934968 -0.072343677 0.71400005
0.040181875 -0.072444998 0.71500003
0.041374248 -0.072444998 0.71500003
0.042685691 -0.072647639 0.71700001
-0.083942316 -0.071352281 0.71600002
-0.082748279 -0.071352281 0.71600002
-0.081440337 -0.071252629 0.71500003
-0.080247961 -0.071252629 0.71500003
-0.078945018 -0.071152978 0.71400005
-0.077645414 -0.071053319 0.71300006
-0.076456375 -0.071053319 0.71300006
-0.075161763 -0.07095366 0.71200001
-0.073870495 -0.070854008 0.71100003
-0.072582565 -0.070754357 0.71000004
-0.071297973 -0.070654705 0.70900005
-0.070016704 -0.070555046 0.708
-0.068738781 -0.070455395 0.70700002
-0.067368634 -0.070256084 0.70500004
-0.066099048 -0.070156433 0.70400006
-0.064740568 -0.069957122 0.70200002
-0.063479319 -0.069857471 0.70100003
-0.062221404 -0.069757819 0.70000005
-0.06096682 -0.069658168 0.69900006
-0.059715573 -0.069558509 0.69800001
-0.058467664 -0.069458857 0.69700003
-0.057223093 -0.069359198 0.69600004
-0.055981856 -0.069259547 0.69500005
-0.054743949 -0.069159888 0.69400001
-0.053586595 -0.069159888 0.69400001
-0.05227815 -0.068960585 0.69200003
-0.051050257 -0.068860933 0.69100004
-0.049825694 -0.068761282 0.69000006
-0.048675012 -0.068761282 0.69000006
-0.047455445 -0.068661623 0.68900001
-0.046239223 -0.068561964 0.68800002
-0.045026336 -0.068462312 0.68700004
-0.043816783 -0.068362661 0.68600005
-0.042672772 -0.068362661 0.68600005
-0.041528761 -0.068362661 0.68600005
-0.040384747 -0.068362661 0.68600005
-0.039240737 -0.068362661 0.68600005
-0.038041186 -0.068263009 0.68500006
-0.036898844 -0.068263009 0.68500006
-0.035756499 -0.068263009 0.68500006
-0.03456362 -0.06816335 0.68400002
-0.033422943 -0.06816335 0.68400002
-0.032235067 -0.068063699 0.68300003
-0.03109606 -0.068063699 0.68300003
-0.02995705 -0.068063699 0.68300003
-0.028775848 -0.067964047 0.68200004
-0.027638506 -0.067964047 0.68200004
-0.026462305 -0.067864396 0.68100005
-0.025326632 -0.067864396 0.68100005
-0.024190957 -0.067864396 0.68100005
-0.023055283 -0.067864396 0.68100005
-0.021887422 -0.067764737 0.68000001
-0.020753413 -0.067764737 0.68000001
-0.019590557 -0.067665078 0.67900002
-0.018458216 -0.067665078 0.67900002
-0.017325878 -0.067665078 0.67900002
-0.016217388 -0.067764737 0.68000001
-0.015083381 -0.067764737 0.68000001
-0.013949375 -0.067764737 0.68000001
-0.012815367 -0.067764737 0.68000001
-0.01169854 -0.067864396 0.68100005
-0.010562866 -0.067864396 0.68100005
-0.0094410349 -0.067964047 0.68200004
-0.0083036935 -0.067964047 0.68200004
-0.0071663507 -0.067964047 0.68200004
-0.006037849 -0.068063699 0.68300003
-0.0048988396 -0.068063699 0.68300003
-0.0037653348 -0.06816335 0.68400002
-0.0026246577 -0.06816335 0.68400002
-0.0014839804 -0.06816335 0.68400002
-0.00034380509 -0.068263009 0.68500006
0.00079970557 -0.068362661 0.68600005
0.0019437181 -0.068362661 0.68600005
0.0030922317 -0.068462312 0.68700004
0.0042440807 -0.068561964 0.68800002
0.0053992649 -0.068661623 0.68900001
0.006557785 -0.068761282 0.69000006
0.007708468 -0.068761282 0.69000006
0.0088719903 -0.068860933 0.69100004
0.010038848 -0.068960585 0.69200003
0.01120904 -0.069060236 0.69300002
0.012364727 -0.069060236 0.69300002
0.013539922 -0.069159888 0.69400001
0.014718456 -0.069259547 0.69500005
0.015877476 -0.069259547 0.69500005
0.01706101 -0.069359198 0.69600004
0.01824788 -0.069458857 0.69700003
0.019438084 -0.069558509 0.69800001
0.020602109 -0.069558509 0.69800001
0.02179732 -0.069658168 0.69900006
0.022995863 -0.069757819 0.70000005
0.02419774 -0.069857471 0.70100003
0.025439139 -0.070056774 0.70300001
0.026649358 -0.070156433 0.70400006
0.027862908 -0.070256084 0.70500004
0.029120987 -0.070455395 0.70700002
0.030342877 -0.070555046 0.708
0.031568103 -0.070654705 0.70900005
0.032796662 -0.070754357 0.71000004
0.03402856 -0.070854008 0.71100003
0.035263792 -0.07095366 0.71200001
0.036553558 -0.071152978 0.71400005
0.037797127 -0.071252629 0.71500003
0.038989499 -0.071252629 0.71500003
0.040238071 -0.071352281 0.71600002
0.041432112 -0.071352281 0.71600002
0.042685691 -0.071451932 0.71700001
-0.085374177 -0.070354208 0.71800005
-0.084059559 -0.070256218 0.71700001
-0.082748279 -0.070158236 0.71600002
-0.081554234 -0.070158236 0.71600002
-0.080360197 -0.070158236 0.71600002
-0.079055585 -0.070060246 0.71500003
-0.077754311 -0.069962263 0.71400005
-0.076456375 -0.069864281 0.71300006
