ply
format ascii 1.0
comment PCL generated
element vertex 1301
property float x
property float y
property float z
element camera 0
property float view_px
property float view_py
property float view_pz
property float x_axisx
property float x_axisy
property float x_axisz
property float y_axisx
property float y_axisy
property float y_axisz
property float z_axisx
property float z_axisy
property float z_axisz
property float focal
property float scalex
property float scaley
property float centerx
property float centery
property int viewportx
property int viewporty
property float k1
property float k2
end_header
-0.0096209962 -0.084326826 0.69500005
-0.0084619746 -0.084326826 0.69500005
-0.0073029529 -0.084326826 0.69500005
-0.0061527714 -0.084448159 0.69600004
-0.0049920827 -0.084448159 0.69600004
-0.0038368984 -0.084569491 0.69700003
-0.0026783787 -0.084690824 0.69800001
-0.001516524 -0.084812164 0.69900006
-0.00035083177 -0.084812164 0.69900006
0.00081602612 -0.084933497 0.70000005
0.0019833858 -0.084933497 0.70000005
0.0031507455 -0.084933497 0.70000005
0.0043242741 -0.085054822 0.70100003
0.0055011376 -0.085176155 0.70200002
0.0066718329 -0.085176155 0.70200002
0.0078536998 -0.085297488 0.70300001
0.0090389019 -0.085418828 0.70400006
0.010227439 -0.085540161 0.70500004
0.011403137 -0.085540161 0.70500004
0.012596678 -0.085661493 0.70600003
0.013813063 -0.085904159 0.708
0.014993764 -0.085904159 0.708
0.016197311 -0.086025499 0.70900005
0.017404191 -0.086146832 0.71000004
0.018588228 -0.086146832 0.71000004
0.019800112 -0.086268157 0.71100003
0.021015331 -0.086389489 0.71200001
0.022233889 -0.08651083 0.71300006
0.02345578 -0.086632162 0.71400005
0.024715524 -0.086874828 0.71600002
0.025945751 -0.08699616 0.71700001
0.02721717 -0.087238833 0.71900004
0.028455736 -0.087360166 0.72000003
0.02969764 -0.087481491 0.72100002
0.030985735 -0.087724164 0.72300005
0.032280501 -0.08796683 0.72500002
0.033535741 -0.088088162 0.72600001
0.034794323 -0.088209502 0.72700006
0.036006708 -0.088209502 0.72700006
0.037270293 -0.088330835 0.72800004
-0.10934336 -0.082330137 0.68800002
-0.10819601 -0.082330137 0.68800002
-0.10704866 -0.082330137 0.68800002
-0.10590132 -0.082330137 0.68800002
-0.10490622 -0.082449809 0.68900001
-0.10375721 -0.082449809 0.68900001
-0.10260819 -0.082449809 0.68900001
-0.10145917 -0.082449809 0.68900001
-0.10031016 -0.082449809 0.68900001
-0.099305071 -0.08256948 0.69000006
-0.098154388 -0.08256948 0.69000006
-0.097003706 -0.08256948 0.69000006
-0.095853023 -0.08256948 0.69000006
-0.094839588 -0.082689144 0.69100004
-0.094093978 -0.083048135 0.69400001
-0.093204454 -0.08328747 0.69600004
-0.092572749 -0.083766133 0.70000005
-0.091927715 -0.084244803 0.70400006
-0.091269322 -0.084723458 0.708
-0.090470359 -0.085082456 0.71100003
-0.089786954 -0.085561119 0.71500003
-0.089090221 -0.086039789 0.71900004
-0.088257894 -0.086398788 0.72200006
-0.087294988 -0.086638115 0.72400004
-0.086206511 -0.086757779 0.72500002
-0.08499746 -0.086757779 0.72500002
-0.083672844 -0.086638115 0.72400004
-0.082465455 -0.086638115 0.72400004
-0.081145845 -0.086518452 0.72300005
-0.079940125 -0.086518452 0.72300005
-0.078625515 -0.086398788 0.72200006
-0.077314228 -0.086279117 0.72100002
-0.076006278 -0.086159453 0.72000003
-0.074701674 -0.086039789 0.71900004
-0.073400401 -0.085920125 0.71800005
-0.072102457 -0.085800447 0.71700001
-0.070807852 -0.085680783 0.71600002
-0.069516592 -0.085561119 0.71500003
-0.068228655 -0.085441455 0.71400005
-0.067037947 -0.085441455 0.71400005
-0.065755025 -0.085321791 0.71300006
-0.064475425 -0.08520212 0.71200001
-0.06319917 -0.085082456 0.71100003
-0.061926238 -0.084962793 0.71000004
-0.060656652 -0.084843129 0.70900005
-0.059390396 -0.084723458 0.708
-0.058127478 -0.084603794 0.70700002
-0.056867898 -0.08448413 0.70600003
-0.055611651 -0.084364466 0.70500004
-0.054281522 -0.084125131 0.70300001
-0.053033616 -0.08400546 0.70200002
-0.051789042 -0.083885796 0.70100003
-0.050547805 -0.083766133 0.70000005
-0.049380448 -0.083766133 0.70000005
-0.048144206 -0.083646469 0.69900006
-0.046978515 -0.083646469 0.69900006
-0.04574728 -0.083526798 0.69800001
-0.044519383 -0.083407134 0.69700003
-0.04335703 -0.083407134 0.69700003
-0.042134136 -0.08328747 0.69600004
-0.040973447 -0.08328747 0.69600004
-0.039812759 -0.08328747 0.69600004
-0.038596533 -0.083167806 0.69500005
-0.037437513 -0.083167806 0.69500005
-0.03627849 -0.083167806 0.69500005
-0.035068937 -0.083048135 0.69400001
-0.033911582 -0.083048135 0.69400001
-0.032707032 -0.082928471 0.69300002
-0.031551346 -0.082928471 0.69300002
-0.030351799 -0.082808807 0.69200003
-0.02919778 -0.082808807 0.69200003
-0.028043764 -0.082808807 0.69200003
-0.026889743 -0.082808807 0.69200003
-0.025735725 -0.082808807 0.69200003
-0.024617229 -0.082928471 0.69300002
-0.023461543 -0.082928471 0.69300002
-0.022305857 -0.082928471 0.69300002
-0.021180689 -0.083048135 0.69400001
-0.020023337 -0.083048135 0.69400001
-0.018865982 -0.083048135 0.69400001
-0.017708629 -0.083048135 0.69400001
-0.016575126 -0.083167806 0.69500005
-0.015416103 -0.083167806 0.69500005
-0.014257083 -0.083167806 0.69500005
-0.01309806 -0.083167806 0.69500005
-0.011939039 -0.083167806 0.69500005
-0.010780018 -0.083167806 0.69500005
-0.0096348394 -0.08328747 0.69600004
-0.0084741497 -0.08328747 0.69600004
-0.0073134606 -0.08328747 0.69600004
-0.0061616115 -0.083407134 0.69700003
-0.0049992548 -0.083407134 0.69700003
-0.0038424032 -0.083526798 0.69800001
-0.0026822162 -0.083646469 0.69900006
-0.001516524 -0.083646469 0.69900006
-0.00035133367 -0.083766133 0.70000005
0.00081602612 -0.083766133 0.70000005
0.0019862191 -0.083885796 0.70100003
0.0031552466 -0.083885796 0.70100003
0.0043304428 -0.08400546 0.70200002
0.0055011376 -0.08400546 0.70200002
0.0066813366 -0.084125131 0.70300001
0.007864872 -0.084244803 0.70400006
0.0090517411 -0.084364466 0.70500004
0.010227439 -0.084364466 0.70500004
0.011419311 -0.08448413 0.70600003
0.012614519 -0.084603794 0.70700002
0.013813063 -0.084723458 0.708
0.015014943 -0.084843129 0.70900005
0.016197311 -0.084843129 0.70900005
0.017404191 -0.084962793 0.71000004
0.018614409 -0.085082456 0.71100003
0.01982796 -0.08520212 0.71200001
0.021044848 -0.085321791 0.71300006
0.022265073 -0.085441455 0.71400005
0.023488631 -0.085561119 0.71500003
0.024715524 -0.085680783 0.71600002
0.025981938 -0.085920125 0.71800005
0.02721717 -0.086039789 0.71900004
0.028495258 -0.086279117 0.72100002
0.029738832 -0.086398788 0.72200006
0.031028593 -0.086638115 0.72400004
0.032280501 -0.086757779 0.72500002
0.033535741 -0.086877443 0.72600001
0.034794323 -0.086997114 0.72700006
0.036056235 -0.087116778 0.72800004
0.037270293 -0.087116778 0.72800004
-0.10934336 -0.081182793 0.68800002
-0.10835327 -0.081300788 0.68900001
-0.10720425 -0.081300788 0.68900001
-0.10605524 -0.081300788 0.68900001
-0.10490622 -0.081300788 0.68900001
-0.10375721 -0.081300788 0.68900001
-0.10275712 -0.081418797 0.69000006
-0.10160644 -0.081418797 0.69000006
-0.10045575 -0.081418797 0.69000006
-0.099305071 -0.081418797 0.69000006
-0.098154388 -0.081418797 0.69000006
-0.097144283 -0.081536792 0.69100004
-0.095991939 -0.081536792 0.69100004
-0.094976835 -0.081654787 0.69200003
-0.094093978 -0.081890784 0.69400001
-0.09333837 -0.082244776 0.69700003
-0.092572749 -0.082598776 0.70000005
-0.091927715 -0.08307077 0.70400006
-0.091269322 -0.083542757 0.708
-0.090470359 -0.083896756 0.71100003
-0.089786954 -0.08436875 0.71500003
-0.089090221 -0.084840745 0.71900004
-0.088257894 -0.085194737 0.72200006
-0.087174416 -0.085312732 0.72300005
-0.086087607 -0.085430734 0.72400004
-0.084880225 -0.085430734 0.72400004
-0.083672844 -0.085430734 0.72400004
-0.082465455 -0.085430734 0.72400004
-0.081145845 -0.085312732 0.72300005
-0.079940125 -0.085312732 0.72300005
-0.078625515 -0.085194737 0.72200006
-0.077314228 -0.085076734 0.72100002
-0.076006278 -0.08495874 0.72000003
-0.074805565 -0.08495874 0.72000003
-0.07350263 -0.084840745 0.71900004
-0.072102457 -0.08460474 0.71700001
-0.070807852 -0.084486745 0.71600002
-0.069516592 -0.08436875 0.71500003
-0.068324216 -0.08436875 0.71500003
-0.067037947 -0.084250748 0.71400005
-0.065755025 -0.084132753 0.71300006
-0.064475425 -0.084014751 0.71200001
-0.06319917 -0.083896756 0.71100003
-0.061926238 -0.083778754 0.71000004
-0.060656652 -0.083660759 0.70900005
-0.059390396 -0.083542757 0.708
-0.058209695 -0.083542757 0.708
-0.056948446 -0.083424762 0.70700002
-0.055611651 -0.083188765 0.70500004
-0.054358739 -0.08307077 0.70400006
-0.053109162 -0.082952768 0.70300001
-0.051862922 -0.082834765 0.70200002
-0.050620016 -0.08271677 0.70100003
-0.049380448 -0.082598776 0.70000005
-0.048213083 -0.082598776 0.70000005
-0.046978515 -0.082480781 0.69900006
-0.04574728 -0.082362778 0.69800001
-0.044583257 -0.082362778 0.69800001
-0.04335703 -0.082244776 0.69700003
-0.042194672 -0.082244776 0.69700003
-0.040973447 -0.082126781 0.69600004
-0.039812759 -0.082126781 0.69600004
-0.038596533 -0.082008786 0.69500005
-0.037437513 -0.082008786 0.69500005
-0.03627849 -0.082008786 0.69500005
-0.035068937 -0.081890784 0.69400001
-0.033911582 -0.081890784 0.69400001
-0.032707032 -0.081772782 0.69300002
-0.031551346 -0.081772782 0.69300002
-0.030395659 -0.081772782 0.69300002
-0.02919778 -0.081654787 0.69200003
-0.028043764 -0.081654787 0.69200003
-0.0269286 -0.081772782 0.69300002
-0.025772914 -0.081772782 0.69300002
-0.024652751 -0.081890784 0.69400001
-0.023495398 -0.081890784 0.69400001
-0.022338044 -0.081890784 0.69400001
-0.021180689 -0.081890784 0.69400001
-0.020052191 -0.082008786 0.69500005
-0.018893167 -0.082008786 0.69500005
-0.017734146 -0.082008786 0.69500005
-0.016575126 -0.082008786 0.69500005
-0.015416103 -0.082008786 0.69500005
-0.014257083 -0.082008786 0.69500005
-0.01309806 -0.082008786 0.69500005
-0.011956218 -0.082126781 0.69600004
-0.010795528 -0.082126781 0.69600004
-0.0096486825 -0.082244776 0.69700003
-0.0084863259 -0.082244776 0.69700003
-0.0073239687 -0.082244776 0.69700003
-0.0061616115 -0.082244776 0.69700003
-0.0050064274 -0.082362778 0.69800001
-0.0038479082 -0.082480781 0.69900006
-0.0026822162 -0.082480781 0.69900006
-0.0015186935 -0.082598776 0.70000005
-0.00035133367 -0.082598776 0.70000005
0.00081719185 -0.08271677 0.70100003
0.0019862191 -0.08271677 0.70100003
0.0031597475 -0.082834765 0.70200002
0.0043366114 -0.082952768 0.70300001
0.0055089737 -0.082952768 0.70300001
0.0066908412 -0.08307077 0.70400006
0.007864872 -0.08307077 0.70400006
0.0090517411 -0.083188765 0.70500004
0.010241946 -0.08330676 0.70600003
0.011435485 -0.083424762 0.70700002
0.012632362 -0.083542757 0.708
0.013813063 -0.083542757 0.708
0.015014943 -0.083660759 0.70900005
0.016220156 -0.083778754 0.71000004
0.017428704 -0.083896756 0.71100003
0.018614409 -0.083896756 0.71100003
0.01982796 -0.084014751 0.71200001
0.021044848 -0.084132753 0.71300006
0.022296255 -0.08436875 0.71500003
0.023521481 -0.084486745 0.71600002
0.024750043 -0.08460474 0.71700001
0.026018126 -0.084840745 0.71900004
0.027255025 -0.08495874 0.72000003
0.028495258 -0.085076734 0.72100002
0.029780021 -0.085312732 0.72300005
0.031028593 -0.085430734 0.72400004
0.032325026 -0.085666724 0.72600001
0.033535741 -0.085666724 0.72600001
0.034794323 -0.085784726 0.72700006
0.036056235 -0.085902728 0.72800004
0.037270293 -0.085902728 0.72800004
-0.10950228 -0.080151767 0.68900001
-0.10835327 -0.080151767 0.68900001
-0.10735985 -0.080268107 0.69000006
-0.10620917 -0.080268107 0.69000006
-0.10505848 -0.080268107 0.69000006
-0.10390781 -0.080268107 0.69000006
-0.10275712 -0.080268107 0.69000006
-0.10175369 -0.080384433 0.69100004
-0.10060135 -0.080384433 0.69100004
-0.099448986 -0.080384433 0.69100004
-0.098296642 -0.080384433 0.69100004
-0.097284868 -0.080500767 0.69200003
-0.096130855 -0.080500767 0.69200003
-0.095114082 -0.080617093 0.69300002
-0.094229572 -0.080849759 0.69500005
-0.09333837 -0.081082419 0.69700003
-0.092572749 -0.081431411 0.70000005
-0.091927715 -0.081896737 0.70400006
-0.091140412 -0.082245722 0.70700002
-0.090343118 -0.082594715 0.71000004
-0.089661382 -0.083060041 0.71400005
-0.088842399 -0.083409026 0.71700001
-0.088013411 -0.083758019 0.72000003
-0.08705385 -0.083990686 0.72200006
-0.085968703 -0.084107012 0.72300005
-0.08476299 -0.084107012 0.72300005
-0.083672844 -0.084223345 0.72400004
-0.082465455 -0.084223345 0.72400004
-0.081145845 -0.084107012 0.72300005
-0.079940125 -0.084107012 0.72300005
-0.078625515 -0.083990686 0.72200006
-0.077314228 -0.083874352 0.72100002
-0.076006278 -0.083758019 0.72000003
-0.074805565 -0.083758019 0.72000003
-0.07350263 -0.083641693 0.71900004
-0.072203025 -0.08352536 0.71800005
-0.070906751 -0.083409026 0.71700001
-0.069613814 -0.0832927 0.71600002
-0.068324216 -0.083176367 0.71500003
-0.067037947 -0.083060041 0.71400005
-0.065755025 -0.082943708 0.71300006
-0.064565986 -0.082943708 0.71300006
-0.063288055 -0.082827374 0.71200001
-0.062013458 -0.082711041 0.71100003
-0.060742203 -0.082594715 0.71000004
-0.059474282 -0.082478389 0.70900005
-0.058209695 -0.082362048 0.708
-0.056948446 -0.082245722 0.70700002
-0.055690531 -0.082129389 0.70600003
-0.054435953 -0.082013063 0.70500004
-0.05318471 -0.081896737 0.70400006
-0.051936798 -0.081780396 0.70300001
-0.050692227 -0.08166407 0.70200002
-0.04945099 -0.081547737 0.70100003
-0.048213083 -0.081431411 0.70000005
-0.047045723 -0.081431411 0.70000005
-0.045812823 -0.081315085 0.69900006
-0.044583257 -0.081198744 0.69800001
-0.043419231 -0.081198744 0.69800001
-0.042194672 -0.081082419 0.69700003
-0.041032314 -0.081082419 0.69700003
-0.039812759 -0.080966085 0.69600004
-0.038652066 -0.080966085 0.69600004
-0.037437513 -0.080849759 0.69500005
-0.03627849 -0.080849759 0.69500005
-0.035068937 -0.080733426 0.69400001
-0.033911582 -0.080733426 0.69400001
-0.032754228 -0.080733426 0.69400001
-0.031551346 -0.080617093 0.69300002
-0.030395659 -0.080617093 0.69300002
-0.029239973 -0.080617093 0.69300002
-0.028084287 -0.080617093 0.69300002
-0.026967458 -0.080733426 0.69400001
-0.025810104 -0.080733426 0.69400001
-0.024652751 -0.080733426 0.69400001
-0.023529254 -0.080849759 0.69500005
-0.022370234 -0.080849759 0.69500005
-0.021211211 -0.080849759 0.69500005
-0.020052191 -0.080849759 0.69500005
-0.018893167 -0.080849759 0.69500005
-0.017734146 -0.080849759 0.69500005
-0.016598975 -0.080966085 0.69600004
-0.015438285 -0.080966085 0.69600004
-0.014277596 -0.080966085 0.69600004
-0.013135752 -0.081082419 0.69700003
-0.011973396 -0.081082419 0.69700003
-0.010811038 -0.081082419 0.69700003
-0.0096486825 -0.081082419 0.69700003
-0.008498501 -0.081198744 0.69800001
-0.0073344763 -0.081198744 0.69800001
-0.0061704516 -0.081198744 0.69800001
-0.0050064274 -0.081198744 0.69800001
-0.0038479082 -0.081315085 0.69900006
-0.0026860533 -0.081431411 0.70000005
-0.0015186935 -0.081431411 0.70000005
-0.00035183557 -0.081547737 0.70100003
0.00081719185 -0.081547737 0.70100003
0.0019890526 -0.08166407 0.70200002
0.0031642485 -0.081780396 0.70300001
0.0043427804 -0.081896737 0.70400006
0.0055168108 -0.081896737 0.70400006
0.0066908412 -0.081896737 0.70400006
0.0078760432 -0.082013063 0.70500004
0.0090645803 -0.082129389 0.70600003
0.010256452 -0.082245722 0.70700002
0.01145166 -0.082362048 0.708
0.012632362 -0.082362048 0.708
0.013832573 -0.082478389 0.70900005
0.01503612 -0.082594715 0.71000004
0.016220156 -0.082594715 0.71000004
0.017428704 -0.082711041 0.71100003
0.018640589 -0.082827374 0.71200001
0.01985581 -0.082943708 0.71300006
0.021074364 -0.083060041 0.71400005
0.022296255 -0.083176367 0.71500003
0.023521481 -0.0832927 0.71600002
0.024784563 -0.08352536 0.71800005
0.026018126 -0.083641693 0.71900004
0.027255025 -0.083758019 0.72000003
0.028534781 -0.083990686 0.72200006
0.029780021 -0.084107012 0.72300005
0.031071449 -0.084339671 0.72500002
0.032325026 -0.084456004 0.72600001
0.033581939 -0.084572338 0.72700006
0.034794323 -0.084572338 0.72700006
0.036056235 -0.084688663 0.72800004
0.037270293 -0.084688663 0.72800004
-0.10950228 -0.079002753 0.68900001
-0.10851054 -0.079117425 0.69000006
-0.10735985 -0.079117425 0.69000006
-0.10620917 -0.079117425 0.69000006
-0.10505848 -0.079117425 0.69000006
-0.1040584 -0.079232082 0.69100004
-0.10290604 -0.079232082 0.69100004
-0.10175369 -0.079232082 0.69100004
-0.10074693 -0.079346746 0.69200003
-0.099592902 -0.079346746 0.69200003
-0.098438889 -0.079346746 0.69200003
-0.097425453 -0.079461411 0.69300002
-0.096269771 -0.079461411 0.69300002
-0.095251329 -0.079576068 0.69400001
-0.094229572 -0.07969074 0.69500005
-0.09347228 -0.080034725 0.69800001
-0.092704996 -0.080378711 0.70100003
-0.091927715 -0.080722705 0.70400006
-0.091140412 -0.08106669 0.70700002
-0.090343118 -0.081410676 0.71000004
-0.089661382 -0.081869334 0.71400005
-0.088842399 -0.08221332 0.71700001
-0.088013411 -0.082557306 0.72000003
-0.08705385 -0.082786635 0.72200006
-0.085968703 -0.082901299 0.72300005
-0.08476299 -0.082901299 0.72300005
-0.08355727 -0.082901299 0.72300005
-0.082465455 -0.083015963 0.72400004
-0.081145845 -0.082901299 0.72300005
-0.079940125 -0.082901299 0.72300005
-0.078625515 -0.082786635 0.72200006
-0.077421464 -0.082786635 0.72200006
-0.076111846 -0.08267197 0.72100002
-0.074805565 -0.082557306 0.72000003
-0.07350263 -0.082442649 0.71900004
-0.072203025 -0.082327984 0.71800005
-0.070906751 -0.08221332 0.71700001
-0.069613814 -0.082098655 0.71600002
-0.068324216 -0.081983991 0.71500003
-0.067037947 -0.081869334 0.71400005
-0.065847248 -0.081869334 0.71400005
-0.064565986 -0.08175467 0.71300006
-0.063288055 -0.081640005 0.71200001
-0.062013458 -0.081525341 0.71100003
-0.060742203 -0.081410676 0.71000004
-0.059474282 -0.081296019 0.70900005
-0.058209695 -0.081181347 0.708
-0.057028994 -0.081181347 0.708
-0.055769414 -0.08106669 0.70700002
-0.054513168 -0.080952026 0.70600003
-0.053260256 -0.080837369 0.70500004
-0.052010681 -0.080722705 0.70400006
-0.050764438 -0.080608033 0.70300001
-0.049521532 -0.080493376 0.70200002
-0.048281956 -0.080378711 0.70100003
-0.047045723 -0.080264054 0.70000005
-0.045878362 -0.080264054 0.70000005
-0.044647131 -0.08014939 0.69900006
-0.043419231 -0.080034725 0.69800001
-0.042255208 -0.080034725 0.69800001
-0.041032314 -0.079920061 0.69700003
-0.03986996 -0.079920061 0.69700003
-0.038652066 -0.079805396 0.69600004
-0.037437513 -0.07969074 0.69500005
-0.03627849 -0.07969074 0.69500005
-0.03511947 -0.07969074 0.69500005
-0.033911582 -0.079576068 0.69400001
-0.032754228 -0.079576068 0.69400001
-0.031596873 -0.079576068 0.69400001
-0.030395659 -0.079461411 0.69300002
-0.029239973 -0.079461411 0.69300002
-0.028124813 -0.079576068 0.69400001
-0.026967458 -0.079576068 0.69400001
-0.025847297 -0.07969074 0.69500005
-0.024688276 -0.07969074 0.69500005
-0.023529254 -0.07969074 0.69500005
-0.022370234 -0.07969074 0.69500005
-0.02124173 -0.079805396 0.69600004
-0.020081041 -0.079805396 0.69600004
-0.018920351 -0.079805396 0.69600004
-0.017759664 -0.079805396 0.69600004
-0.016622823 -0.079920061 0.69700003
-0.015460466 -0.079920061 0.69700003
-0.014298109 -0.079920061 0.69700003
-0.013154598 -0.080034725 0.69800001
-0.011990574 -0.080034725 0.69800001
-0.010826549 -0.080034725 0.69800001
-0.0096625257 -0.080034725 0.69800001
-0.0085106771 -0.08014939 0.69900006
-0.0073449844 -0.08014939 0.69900006
-0.0061792922 -0.08014939 0.69900006
-0.0050136005 -0.08014939 0.69900006
-0.003853413 -0.080264054 0.70000005
-0.0026860533 -0.080264054 0.70000005
-0.001520863 -0.080378711 0.70100003
-0.00035183557 -0.080378711 0.70100003
0.00081835757 -0.080493376 0.70200002
0.0019918859 -0.080608033 0.70300001
0.0031642485 -0.080608033 0.70300001
0.0043427804 -0.080722705 0.70400006
0.005524647 -0.080837369 0.70500004
0.0067003453 -0.080837369 0.70500004
0.0078872154 -0.080952026 0.70600003
0.0090645803 -0.080952026 0.70600003
0.010256452 -0.08106669 0.70700002
0.01145166 -0.081181347 0.708
0.012632362 -0.081181347 0.708
0.013832573 -0.081296019 0.70900005
0.01503612 -0.081410676 0.71000004
0.016243001 -0.081525341 0.71100003
0.017453218 -0.081640005 0.71200001
0.01866677 -0.08175467 0.71300006
0.019883659 -0.081869334 0.71400005
0.021103879 -0.081983991 0.71500003
0.022327438 -0.082098655 0.71600002
0.023554333 -0.08221332 0.71700001
0.024819082 -0.082442649 0.71900004
0.026054312 -0.082557306 0.72000003
0.027292877 -0.08267197 0.72100002
0.028574303 -0.082901299 0.72300005
0.02982121 -0.083015963 0.72400004
0.031071449 -0.08313062 0.72500002
0.032325026 -0.083245285 0.72600001
0.033581939 -0.083359949 0.72700006
0.034842182 -0.083474614 0.72800004
0.036056235 -0.083474614 0.72800004
0.037321489 -0.083589278 0.72900003
-0.10751545 -0.078079738 0.69100004
-0.1063631 -0.078079738 0.69100004
-0.10521074 -0.078079738 0.69100004
-0.10420899 -0.078192726 0.69200003
-0.10305496 -0.078192726 0.69200003
-0.10190094 -0.078192726 0.69200003
-0.10074693 -0.078192726 0.69200003
-0.099736825 -0.078305721 0.69300002
-0.098581143 -0.078305721 0.69300002
-0.097566038 -0.078418717 0.69400001
-0.096408688 -0.078418717 0.69400001
-0.095388584 -0.07853172 0.69500005
-0.09436515 -0.078644708 0.69600004
-0.093606204 -0.078983702 0.69900006
-0.092704996 -0.079209685 0.70100003
-0.091927715 -0.079548672 0.70400006
-0.091140412 -0.079887658 0.70700002
-0.090343118 -0.080226645 0.71000004
-0.089535803 -0.080565631 0.71300006
-0.088718489 -0.08090461 0.71600002
-0.087891169 -0.081243604 0.71900004
-0.08693327 -0.081469588 0.72100002
-0.085849799 -0.081582591 0.72200006
-0.08476299 -0.081695586 0.72300005
-0.08355727 -0.081695586 0.72300005
-0.082465455 -0.081808574 0.72400004
-0.081258073 -0.081808574 0.72400004
-0.079940125 -0.081695586 0.72300005
-0.078734413 -0.081695586 0.72300005
-0.077421464 -0.081582591 0.72200006
-0.076111846 -0.081469588 0.72100002
-0.074805565 -0.081356592 0.72000003
-0.073604852 -0.081356592 0.72000003
-0.072203025 -0.081130609 0.71800005
-0.070906751 -0.081017606 0.71700001
-0.069613814 -0.08090461 0.71600002
-0.068324216 -0.080791622 0.71500003
-0.06713184 -0.080791622 0.71500003
-0.065847248 -0.080678627 0.71400005
-0.064565986 -0.080565631 0.71300006
-0.063288055 -0.080452628 0.71200001
-0.062013458 -0.08033964 0.71100003
-0.060827754 -0.08033964 0.71100003
-0.059558168 -0.080226645 0.71000004
-0.058291916 -0.080113649 0.70900005
-0.057028994 -0.080000646 0.708
-0.055848293 -0.080000646 0.708
-0.054590382 -0.079887658 0.70700002
-0.053335801 -0.079774663 0.70600003
-0.052010681 -0.079548672 0.70400006
-0.050764438 -0.079435676 0.70300001
-0.049521532 -0.079322681 0.70200002
-0.048281956 -0.079209685 0.70100003
-0.047112931 -0.079209685 0.70100003
-0.045878362 -0.07909669 0.70000005
-0.044647131 -0.078983702 0.69900006
-0.043481439 -0.078983702 0.69900006
-0.042255208 -0.078870699 0.69800001
-0.041091185 -0.078870699 0.69800001
-0.03986996 -0.078757703 0.69700003
-0.038652066 -0.078644708 0.69600004
-0.037491377 -0.078644708 0.69600004
-0.03627849 -0.07853172 0.69500005
-0.03511947 -0.07853172 0.69500005
-0.03396045 -0.07853172 0.69500005
-0.032754228 -0.078418717 0.69400001
-0.031596873 -0.078418717 0.69400001
-0.03043952 -0.078418717 0.69400001
-0.029282168 -0.078418717 0.69400001
-0.028124813 -0.078418717 0.69400001
-0.027006317 -0.07853172 0.69500005
-0.025847297 -0.07853172 0.69500005
-0.024688276 -0.07853172 0.69500005
-0.023563109 -0.078644708 0.69600004
-0.022402421 -0.078644708 0.69600004
-0.02124173 -0.078644708 0.69600004
-0.020081041 -0.078644708 0.69600004
-0.018947536 -0.078757703 0.69700003
-0.01778518 -0.078757703 0.69700003
-0.016646672 -0.078870699 0.69800001
-0.015482646 -0.078870699 0.69800001
-0.014318623 -0.078870699 0.69800001
-0.013173445 -0.078983702 0.69900006
-0.012007753 -0.078983702 0.69900006
-0.010842061 -0.078983702 0.69900006
-0.0096902121 -0.07909669 0.70000005
-0.0085228523 -0.07909669 0.70000005
-0.0073554921 -0.07909669 0.70000005
-0.0061881323 -0.07909669 0.70000005
-0.0050207726 -0.07909669 0.70000005
-0.003853413 -0.07909669 0.70000005
-0.0026898906 -0.079209685 0.70100003
-0.0015230326 -0.079322681 0.70200002
-0.00035233746 -0.079322681 0.70200002
0.00081952329 -0.079435676 0.70300001
0.0019918859 -0.079435676 0.70300001
0.0031687499 -0.079548672 0.70400006
0.0043489491 -0.079661667 0.70500004
0.005524647 -0.079661667 0.70500004
0.006709849 -0.079774663 0.70600003
0.0078872154 -0.079774663 0.70600003
0.0090774195 -0.079887658 0.70700002
0.01027096 -0.080000646 0.708
0.01145166 -0.080000646 0.708
0.012650205 -0.080113649 0.70900005
0.013852083 -0.080226645 0.71000004
0.01503612 -0.080226645 0.71000004
0.016243001 -0.08033964 0.71100003
0.017453218 -0.080452628 0.71200001
0.01866677 -0.080565631 0.71300006
0.019883659 -0.080678627 0.71400005
0.021103879 -0.080791622 0.71500003
0.022327438 -0.08090461 0.71600002
0.023587186 -0.081130609 0.71800005
0.024819082 -0.081243604 0.71900004
0.026054312 -0.081356592 0.72000003
0.027330734 -0.081582591 0.72200006
0.028574303 -0.081695586 0.72300005
0.029862398 -0.08192157 0.72500002
0.031114306 -0.082034566 0.72600001
0.03236955 -0.082147568 0.72700006
0.033628128 -0.082260557 0.72800004
0.034842182 -0.082260557 0.72800004
0.036105763 -0.082373552 0.72900003
0.037321489 -0.082373552 0.72900003
-0.10767104 -0.077038713 0.69200003
-0.10651702 -0.077038713 0.69200003
-0.105363 -0.077038713 0.69200003
-0.10420899 -0.077038713 0.69200003
-0.10320389 -0.077150039 0.69300002
-0.1020482 -0.077150039 0.69300002
-0.10089251 -0.077150039 0.69300002
-0.09988074 -0.077261366 0.69400001
-0.098723397 -0.077261366 0.69400001
-0.097706631 -0.077372693 0.69500005
-0.096547611 -0.077372693 0.69500005
-0.095525831 -0.077484019 0.69600004
-0.094500728 -0.077595346 0.69700003
-0.093606204 -0.077818006 0.69900006
-0.092837244 -0.078151986 0.70200002
-0.091927715 -0.078374647 0.70400006
-0.091140412 -0.078708626 0.70700002
-0.090343118 -0.079042606 0.71000004
-0.089535803 -0.079376593 0.71300006
-0.088718489 -0.079710573 0.71600002
-0.087768927 -0.079933234 0.71800005
-0.086812697 -0.080155887 0.72000003
-0.085849799 -0.08037854 0.72200006
-0.084645756 -0.08037854 0.72200006
-0.08355727 -0.080489866 0.72300005
-0.082465455 -0.080601193 0.72400004
-0.081258073 -0.080601193 0.72400004
-0.080050692 -0.080601193 0.72400004
-0.078734413 -0.080489866 0.72300005
-0.077528693 -0.080489866 0.72300005
-0.076217413 -0.08037854 0.72200006
-0.074909464 -0.080267206 0.72100002
-0.073604852 -0.080155887 0.72000003
-0.072303586 -0.08004456 0.71900004
-0.071005642 -0.079933234 0.71800005
-0.069711037 -0.0798219 0.71700001
-0.068419769 -0.079710573 0.71600002
-0.06713184 -0.079599246 0.71500003
-0.065847248 -0.07948792 0.71400005
-0.064565986 -0.079376593 0.71300006
-0.063288055 -0.079265259 0.71200001
-0.062100679 -0.079265259 0.71200001
-0.060827754 -0.079153933 0.71100003
-0.059558168 -0.079042606 0.71000004
-0.058374133 -0.079042606 0.71000004
-0.057109546 -0.078931279 0.70900005
-0.055848293 -0.078819945 0.708
-0.054590382 -0.078708626 0.70700002
-0.053335801 -0.0785973 0.70600003
-0.052084558 -0.078485973 0.70500004
-0.050836653 -0.078374647 0.70400006
-0.049592074 -0.078263313 0.70300001
-0.048350833 -0.078151986 0.70200002
-0.047112931 -0.078040659 0.70100003
-0.045878362 -0.077929333 0.70000005
-0.044711005 -0.077929333 0.70000005
-0.043481439 -0.077818006 0.69900006
-0.042315748 -0.077818006 0.69900006
-0.041091185 -0.077706672 0.69800001
-0.039927162 -0.077706672 0.69800001
-0.038707599 -0.077595346 0.69700003
-0.037491377 -0.077484019 0.69600004
-0.036330689 -0.077484019 0.69600004
-0.03511947 -0.077372693 0.69500005
-0.03396045 -0.077372693 0.69500005
-0.032801423 -0.077372693 0.69500005
-0.031642403 -0.077372693 0.69500005
-0.030483384 -0.077372693 0.69500005
-0.029324362 -0.077372693 0.69500005
-0.02816534 -0.077372693 0.69500005
-0.027006317 -0.077372693 0.69500005
-0.025884487 -0.077484019 0.69600004
-0.024723798 -0.077484019 0.69600004
-0.023596963 -0.077595346 0.69700003
-0.022434607 -0.077595346 0.69700003
-0.02127225 -0.077595346 0.69700003
-0.020109894 -0.077595346 0.69700003
-0.018947536 -0.077595346 0.69700003
-0.017810697 -0.077706672 0.69800001
-0.016670521 -0.077818006 0.69900006
-0.01550483 -0.077818006 0.69900006
-0.014339138 -0.077818006 0.69900006
-0.01319229 -0.077929333 0.70000005
-0.012024932 -0.077929333 0.70000005
-0.010857571 -0.077929333 0.70000005
-0.0096902121 -0.077929333 0.70000005
-0.0085350275 -0.078040659 0.70100003
-0.0073659997 -0.078040659 0.70100003
-0.0061969724 -0.078040659 0.70100003
-0.0050279452 -0.078040659 0.70100003
-0.0038644227 -0.078151986 0.70200002
-0.0026937276 -0.078151986 0.70200002
-0.0015252022 -0.078263313 0.70300001
-0.00035283939 -0.078263313 0.70300001
0.00082068914 -0.078374647 0.70400006
0.0019947195 -0.078374647 0.70400006
0.0031732509 -0.078485973 0.70500004
0.0043489491 -0.078485973 0.70500004
0.0055324831 -0.0785973 0.70600003
0.006709849 -0.0785973 0.70600003
0.0078983866 -0.078708626 0.70700002
0.0090774195 -0.078708626 0.70700002
0.01027096 -0.078819945 0.708
0.01145166 -0.078819945 0.708
0.012650205 -0.078931279 0.70900005
0.013852083 -0.079042606 0.71000004
0.015057297 -0.079153933 0.71100003
0.016243001 -0.079153933 0.71100003
0.017453218 -0.079265259 0.71200001
0.01866677 -0.079376593 0.71300006
0.019883659 -0.07948792 0.71400005
0.021103879 -0.079599246 0.71500003
0.022358622 -0.0798219 0.71700001
0.023587186 -0.079933234 0.71800005
0.024853598 -0.080155887 0.72000003
0.026090497 -0.080267206 0.72100002
0.027368587 -0.080489866 0.72300005
0.028613824 -0.080601193 0.72400004
0.029862398 -0.08071252 0.72500002
0.031157166 -0.08093518 0.72700006
0.032414075 -0.081046507 0.72800004
0.033628128 -0.081046507 0.72800004
0.034890041 -0.081157833 0.72900003
0.036105763 -0.081157833 0.72900003
0.037372682 -0.08126916 0.73000002
-0.10782663 -0.07599435 0.69300002
-0.10667095 -0.07599435 0.69300002
-0.10551526 -0.07599435 0.69300002
-0.10435957 -0.07599435 0.69300002
-0.10335281 -0.076104008 0.69400001
-0.10219545 -0.076104008 0.69400001
-0.1011837 -0.076213673 0.69500005
-0.10002467 -0.076213673 0.69500005
-0.098865651 -0.076213673 0.69500005
-0.097706631 -0.076213673 0.69500005
-0.096686527 -0.07632333 0.69600004
-0.095663078 -0.076432988 0.69700003
-0.094636314 -0.076542653 0.69800001
-0.093740113 -0.076761976 0.70000005
-0.092837244 -0.076981291 0.70200002
-0.091927715 -0.077200614 0.70400006
-0.091140412 -0.077529587 0.70700002
-0.090215869 -0.077748917 0.70900005
-0.089410223 -0.07807789 0.71200001
-0.088594586 -0.07840687 0.71500003
-0.087768927 -0.078735851 0.71800005
-0.086812697 -0.078955173 0.72000003
-0.085730888 -0.079064831 0.72100002
-0.084645756 -0.079174496 0.72200006
-0.08355727 -0.079284154 0.72300005
-0.082465455 -0.079393812 0.72400004
-0.081258073 -0.079393812 0.72400004
-0.080050692 -0.079393812 0.72400004
-0.07884331 -0.079393812 0.72400004
-0.077528693 -0.079284154 0.72300005
-0.076217413 -0.079174496 0.72200006
-0.074909464 -0.079064831 0.72100002
-0.073604852 -0.078955173 0.72000003
-0.072303586 -0.078845516 0.71900004
-0.071005642 -0.078735851 0.71800005
-0.069711037 -0.078626186 0.71700001
-0.068419769 -0.078516528 0.71600002
-0.06713184 -0.07840687 0.71500003
-0.065847248 -0.078297213 0.71400005
-0.064656541 -0.078297213 0.71400005
-0.063376948 -0.078187555 0.71300006
-0.062100679 -0.07807789 0.71200001
-0.060827754 -0.077968232 0.71100003
-0.05964205 -0.077968232 0.71100003
-0.058374133 -0.077858575 0.71000004
-0.057109546 -0.077748917 0.70900005
-0.055848293 -0.077639252 0.708
-0.054667592 -0.077639252 0.708
-0.053411346 -0.077529587 0.70700002
-0.052158438 -0.077419929 0.70600003
-0.05090886 -0.077310272 0.70500004
-0.04966262 -0.077200614 0.70400006
-0.048419707 -0.077090949 0.70300001
-0.047180139 -0.076981291 0.70200002
-0.045943905 -0.076871634 0.70100003
-0.044711005 -0.076761976 0.70000005
-0.043543644 -0.076761976 0.70000005
-0.042315748 -0.076652318 0.69900006
-0.041150056 -0.076652318 0.69900006
-0.039927162 -0.076542653 0.69800001
-0.038707599 -0.076432988 0.69700003
-0.037545245 -0.076432988 0.69700003
-0.036330689 -0.07632333 0.69600004
-0.03517 -0.07632333 0.69600004
-0.03396045 -0.076213673 0.69500005
-0.032801423 -0.076213673 0.69500005
-0.031642403 -0.076213673 0.69500005
-0.030483384 -0.076213673 0.69500005
-0.029324362 -0.076213673 0.69500005
-0.02816534 -0.076213673 0.69500005
-0.027045175 -0.07632333 0.69600004
-0.025884487 -0.07632333 0.69600004
-0.024759321 -0.076432988 0.69700003
-0.023596963 -0.076432988 0.69700003
-0.022466794 -0.076542653 0.69800001
-0.021302769 -0.076542653 0.69800001
-0.020138744 -0.076542653 0.69800001
-0.01897472 -0.076542653 0.69800001
-0.017836213 -0.076652318 0.69900006
-0.016670521 -0.076652318 0.69900006
-0.015527011 -0.076761976 0.70000005
-0.014359651 -0.076761976 0.70000005
-0.01319229 -0.076761976 0.70000005
-0.01204211 -0.076871634 0.70100003
-0.010873082 -0.076871634 0.70100003
-0.0097178984 -0.076981291 0.70200002
-0.0085472027 -0.076981291 0.70200002
-0.0073765079 -0.076981291 0.70200002
-0.0062058126 -0.076981291 0.70200002
-0.0050351177 -0.076981291 0.70200002
-0.0038644227 -0.076981291 0.70200002
-0.0026975649 -0.077090949 0.70300001
-0.0015252022 -0.077090949 0.70300001
-0.00035334131 -0.077200614 0.70400006
0.00082068914 -0.077200614 0.70400006
0.0019975528 -0.077310272 0.70500004
0.0031732509 -0.077310272 0.70500004
0.0043551177 -0.077419929 0.70600003
0.0055324831 -0.077419929 0.70600003
0.0067193531 -0.077529587 0.70700002
0.0078983866 -0.077529587 0.70700002
0.0090902587 -0.077639252 0.708
0.01027096 -0.077639252 0.708
0.011467836 -0.077748917 0.70900005
0.012668047 -0.077858575 0.71000004
0.013852083 -0.077858575 0.71000004
0.015057297 -0.077968232 0.71100003
0.016265847 -0.07807789 0.71200001
0.017453218 -0.07807789 0.71200001
0.018692952 -0.078297213 0.71400005
0.019911505 -0.07840687 0.71500003
0.021133395 -0.078516528 0.71600002
0.022358622 -0.078626186 0.71700001
0.023620035 -0.078845516 0.71900004
0.024853598 -0.078955173 0.72000003
0.026126686 -0.079174496 0.72200006
0.027368587 -0.079284154 0.72300005
0.028653346 -0.079503469 0.72500002
0.029903587 -0.079613127 0.72600001
0.031157166 -0.079722792 0.72700006
0.032414075 -0.07983245 0.72800004
0.033674322 -0.079942107 0.72900003
0.034890041 -0.079942107 0.72900003
0.036105763 -0.079942107 0.72900003
0.037372682 -0.080051772 0.73000002
-0.10798222 -0.074946657 0.69400001
-0.10682487 -0.074946657 0.69400001
-0.10581978 -0.075054653 0.69500005
-0.10466076 -0.075054653 0.69500005
-0.10350174 -0.075054653 0.69500005
-0.10234271 -0.075054653 0.69500005
-0.1011837 -0.075054653 0.69500005
-0.10002467 -0.075054653 0.69500005
-0.099007905 -0.075162642 0.69600004
-0.097847208 -0.075162642 0.69600004
-0.096825443 -0.075270638 0.69700003
-0.095800333 -0.075378627 0.69800001
-0.094771899 -0.075486623 0.69900006
-0.09387403 -0.075702608 0.70100003
-0.092969485 -0.075918585 0.70300001
-0.092058294 -0.076134577 0.70500004
-0.091140412 -0.076350555 0.70700002
-0.090215869 -0.076566547 0.70900005
-0.089410223 -0.076890521 0.71200001
-0.088594586 -0.077214494 0.71500003
-0.087646686 -0.077430479 0.71700001
-0.086692125 -0.077646464 0.71900004
-0.085730888 -0.077862449 0.72100002
-0.084645756 -0.077970445 0.72200006
-0.08355727 -0.078078434 0.72300005
-0.082465455 -0.07818643 0.72400004
-0.081258073 -0.07818643 0.72400004
-0.080050692 -0.07818643 0.72400004
-0.07884331 -0.07818643 0.72400004
-0.077635929 -0.07818643 0.72400004
-0.076322973 -0.078078434 0.72300005
-0.075013362 -0.077970445 0.72200006
-0.073707081 -0.077862449 0.72100002
-0.072404146 -0.07775446 0.72000003
-0.071104541 -0.077646464 0.71900004
-0.069808267 -0.077538475 0.71800005
-0.068419769 -0.077322491 0.71600002
-0.067225732 -0.077322491 0.71600002
-0.065939464 -0.077214494 0.71500003
-0.064656541 -0.077106506 0.71400005
-0.063376948 -0.076998517 0.71300006
-0.062100679 -0.076890521 0.71200001
-0.060913306 -0.076890521 0.71200001
-0.05964205 -0.076782525 0.71100003
-0.058374133 -0.076674536 0.71000004
-0.057190094 -0.076674536 0.71000004
-0.05592718 -0.076566547 0.70900005
-0.054667592 -0.076458551 0.708
-0.053411346 -0.076350555 0.70700002
-0.052158438 -0.076242566 0.70600003
-0.05090886 -0.076134577 0.70500004
-0.04966262 -0.076026581 0.70400006
-0.048419707 -0.075918585 0.70300001
-0.047180139 -0.075810596 0.70200002
-0.046009444 -0.075810596 0.70200002
-0.044774875 -0.075702608 0.70100003
-0.043543644 -0.075594611 0.70000005
-0.042376287 -0.075594611 0.70000005
-0.041150056 -0.075486623 0.69900006
-0.039984364 -0.075486623 0.69900006
-0.038763136 -0.075378627 0.69800001
-0.037545245 -0.075270638 0.69700003
-0.036382888 -0.075270638 0.69700003
-0.03517 -0.075162642 0.69600004
-0.034009311 -0.075162642 0.69600004
-0.032848619 -0.075162642 0.69600004
-0.031642403 -0.075054653 0.69500005
-0.030483384 -0.075054653 0.69500005
-0.029366555 -0.075162642 0.69600004
-0.028205866 -0.075162642 0.69600004
-0.027084032 -0.075270638 0.69700003
-0.025921676 -0.075270638 0.69700003
-0.024759321 -0.075270638 0.69700003
-0.023630818 -0.075378627 0.69800001
-0.022466794 -0.075378627 0.69800001
-0.021302769 -0.075378627 0.69800001
-0.020138744 -0.075378627 0.69800001
-0.019001905 -0.075486623 0.69900006
-0.017836213 -0.075486623 0.69900006
-0.016694371 -0.075594611 0.70000005
-0.015527011 -0.075594611 0.70000005
-0.014359651 -0.075594611 0.70000005
-0.01319229 -0.075594611 0.70000005
-0.01204211 -0.075702608 0.70100003
-0.010888592 -0.075810596 0.70200002
-0.0097178984 -0.075810596 0.70200002
-0.0085593779 -0.075918585 0.70300001
-0.0073870155 -0.075918585 0.70300001
-0.0062146527 -0.075918585 0.70300001
-0.0050422898 -0.075918585 0.70300001
-0.0038699275 -0.075918585 0.70300001
-0.0027014022 -0.076026581 0.70400006
-0.0015273718 -0.076026581 0.70400006
-0.00035334131 -0.076026581 0.70400006
0.00082185486 -0.076134577 0.70500004
0.0019975528 -0.076134577 0.70500004
0.0031777518 -0.076242566 0.70600003
0.0043551177 -0.076242566 0.70600003
0.0055324831 -0.076242566 0.70600003
0.0067193531 -0.076350555 0.70700002
0.0078983866 -0.076350555 0.70700002
0.0090902587 -0.076458551 0.708
0.01027096 -0.076458551 0.708
0.011467836 -0.076566547 0.70900005
0.012668047 -0.076674536 0.71000004
0.013852083 -0.076674536 0.71000004
0.015057297 -0.076782525 0.71100003
0.016265847 -0.076890521 0.71200001
0.01747773 -0.076998517 0.71300006
0.018692952 -0.077106506 0.71400005
0.019911505 -0.077214494 0.71500003
0.021133395 -0.077322491 0.71600002
0.022389807 -0.077538475 0.71800005
0.023620035 -0.077646464 0.71900004
0.024853598 -0.07775446 0.72000003
0.026126686 -0.077970445 0.72200006
0.027406441 -0.07818643 0.72400004
0.028653346 -0.078294419 0.72500002
0.029903587 -0.078402407 0.72600001
0.031200022 -0.0786184 0.72800004
0.032414075 -0.0786184 0.72800004
0.033674322 -0.078726389 0.72900003
0.034890041 -0.078726389 0.72900003
0.036105763 -0.078726389 0.72900003
0.037372682 -0.078834377 0.73000002
-0.10829341 -0.074001953 0.69600004
-0.1069788 -0.073895633 0.69500005
-0.10597204 -0.074001953 0.69600004
-0.10481136 -0.074001953 0.69600004
-0.10365066 -0.074001953 0.69600004
-0.10248996 -0.074001953 0.69600004
-0.10132928 -0.074001953 0.69600004
-0.10031251 -0.07410828 0.69700003
-0.099150158 -0.07410828 0.69700003
-0.097987793 -0.07410828 0.69700003
-0.096964359 -0.0742146 0.69800001
-0.095937587 -0.074320935 0.69900006
-0.094907477 -0.074427254 0.70000005
-0.09387403 -0.074533582 0.70100003
-0.092969485 -0.074746221 0.70300001
-0.092058294 -0.074958876 0.70500004
-0.091140412 -0.075171523 0.70700002
-0.090215869 -0.075384177 0.70900005
-0.089410223 -0.075703144 0.71200001
-0.088470675 -0.075915799 0.71400005
-0.087646686 -0.076234773 0.71700001
-0.086692125 -0.07644742 0.71900004
-0.085611984 -0.076553747 0.72000003
-0.084645756 -0.076766402 0.72200006
-0.08355727 -0.076872721 0.72300005
-0.082465455 -0.076979049 0.72400004
-0.081258073 -0.076979049 0.72400004
-0.080161259 -0.077085368 0.72500002
-0.07884331 -0.076979049 0.72400004
-0.077635929 -0.076979049 0.72400004
-0.076322973 -0.076872721 0.72300005
-0.075013362 -0.076766402 0.72200006
-0.073707081 -0.076660067 0.72100002
-0.072404146 -0.076553747 0.72000003
-0.071104541 -0.07644742 0.71900004
-0.069808267 -0.0763411 0.71800005
-0.068515331 -0.076234773 0.71700001
-0.067225732 -0.076128446 0.71600002
-0.065939464 -0.076022126 0.71500003
-0.064656541 -0.075915799 0.71400005
-0.063376948 -0.075809479 0.71300006
-0.062187903 -0.075809479 0.71300006
-0.060913306 -0.075703144 0.71200001
-0.05964205 -0.075596824 0.71100003
-0.058456346 -0.075596824 0.71100003
-0.057190094 -0.075490497 0.71000004
-0.05592718 -0.075384177 0.70900005
-0.054667592 -0.07527785 0.708
-0.053486891 -0.07527785 0.708
-0.052232314 -0.075171523 0.70700002
-0.050981071 -0.075065203 0.70600003
-0.049733162 -0.074958876 0.70500004
-0.048488587 -0.074852556 0.70400006
-0.047247346 -0.074746221 0.70300001
-0.046009444 -0.074639902 0.70200002
-0.044774875 -0.074533582 0.70100003
-0.043605849 -0.074533582 0.70100003
-0.042376287 -0.074427254 0.70000005
-0.041208927 -0.074427254 0.70000005
-0.039984364 -0.074320935 0.69900006
-0.038818672 -0.074320935 0.69900006
-0.037599109 -0.0742146 0.69800001
-0.036382888 -0.07410828 0.69700003
-0.03522053 -0.07410828 0.69700003
-0.034058176 -0.07410828 0.69700003
-0.032848619 -0.074001953 0.69600004
-0.03168793 -0.074001953 0.69600004
-0.030527243 -0.074001953 0.69600004
-0.029366555 -0.074001953 0.69600004
-0.028205866 -0.074001953 0.69600004
-0.027084032 -0.07410828 0.69700003
-0.025921676 -0.07410828 0.69700003
-0.024794841 -0.0742146 0.69800001
-0.023630818 -0.0742146 0.69800001
-0.022466794 -0.0742146 0.69800001
-0.02133329 -0.074320935 0.69900006
-0.020167599 -0.074320935 0.69900006
-0.019001905 -0.074320935 0.69900006
-0.017836213 -0.074320935 0.69900006
-0.016694371 -0.074427254 0.70000005
-0.015527011 -0.074427254 0.70000005
-0.014359651 -0.074427254 0.70000005
-0.013211137 -0.074533582 0.70100003
-0.012059288 -0.074639902 0.70200002
-0.010904104 -0.074746221 0.70300001
-0.0097317407 -0.074746221 0.70300001
-0.008571554 -0.074852556 0.70400006
-0.0073975236 -0.074852556 0.70400006
-0.0062234933 -0.074852556 0.70400006
-0.0050494629 -0.074852556 0.70400006
-0.0038754325 -0.074852556 0.70400006
-0.0027014022 -0.074852556 0.70400006
-0.0015295413 -0.074958876 0.70500004
-0.00035384321 -0.074958876 0.70500004
0.00082185486 -0.074958876 0.70500004
0.0020003861 -0.075065203 0.70600003
0.0031777518 -0.075065203 0.70600003
0.0043551177 -0.075065203 0.70600003
0.0055324831 -0.075065203 0.70600003
0.0067193531 -0.075171523 0.70700002
0.0079095578 -0.07527785 0.708
0.0090902587 -0.07527785 0.708
0.01027096 -0.07527785 0.708
0.011467836 -0.075384177 0.70900005
0.012668047 -0.075490497 0.71000004
0.013852083 -0.075490497 0.71000004
0.015057297 -0.075596824 0.71100003
0.016265847 -0.075703144 0.71200001
0.01747773 -0.075809479 0.71300006
0.018692952 -0.075915799 0.71400005
0.019911505 -0.076022126 0.71500003
0.02116291 -0.076234773 0.71700001
0.022389807 -0.0763411 0.71800005
0.023652887 -0.076553747 0.72000003
0.024888117 -0.076660067 0.72100002
0.026162872 -0.076872721 0.72300005
0.027406441 -0.076979049 0.72400004
0.028692868 -0.077191696 0.72600001
0.029944779 -0.077298023 0.72700006
0.031200022 -0.077404343 0.72800004
0.0324586 -0.07751067 0.72900003
0.033674322 -0.07751067 0.72900003
0.034937903 -0.07761699 0.73000002
0.036155291 -0.07761699 0.73000002
0.037423879 -0.077723317 0.73100001
-0.108449 -0.072945923 0.69700003
-0.10728665 -0.072945923 0.69700003
-0.1061243 -0.072945923 0.69700003
-0.10496194 -0.072945923 0.69700003
-0.10379958 -0.072945923 0.69700003
-0.10263722 -0.072945923 0.69700003
-0.10162045 -0.073050581 0.69800001
-0.10045642 -0.073050581 0.69800001
-0.099292405 -0.073050581 0.69800001
-0.098268971 -0.073155239 0.69900006
-0.097103283 -0.073155239 0.69900006
-0.096074834 -0.073259898 0.70000005
-0.095043063 -0.073364548 0.70100003
-0.094007939 -0.073469207 0.70200002
-0.09310174 -0.073678523 0.70400006
-0.092188872 -0.073887832 0.70600003
-0.091269322 -0.074097149 0.708
-0.090343118 -0.074306466 0.71000004
-0.089410223 -0.074515775 0.71200001
-0.088470675 -0.074725091 0.71400005
-0.087646686 -0.075039059 0.71700001
-0.086692125 -0.075248376 0.71900004
-0.085611984 -0.075353034 0.72000003
-0.084528506 -0.075457692 0.72100002
-0.08355727 -0.075667009 0.72300005
-0.082465455 -0.07577166 0.72400004
-0.081370309 -0.075876318 0.72500002
-0.080161259 -0.075876318 0.72500002
-0.078952208 -0.075876318 0.72500002
-0.077635929 -0.07577166 0.72400004
-0.07642854 -0.07577166 0.72400004
-0.07511726 -0.075667009 0.72300005
-0.073809318 -0.07556235 0.72200006
-0.072404146 -0.075353034 0.72000003
-0.071203433 -0.075353034 0.72000003
-0.069905497 -0.075248376 0.71900004
-0.068515331 -0.075039059 0.71700001
-0.067225732 -0.074934408 0.71600002
-0.066031687 -0.074934408 0.71600002
-0.064747095 -0.07482975 0.71500003
-0.063465834 -0.074725091 0.71400005
-0.062187903 -0.074620441 0.71300006
-0.060998861 -0.074620441 0.71300006
-0.059725937 -0.074515775 0.71200001
-0.058456346 -0.074411124 0.71100003
-0.057190094 -0.074306466 0.71000004
-0.056006059 -0.074306466 0.71000004
-0.05474481 -0.074201807 0.70900005
-0.053486891 -0.074097149 0.708
-0.052232314 -0.073992491 0.70700002
-0.050981071 -0.073887832 0.70600003
-0.049733162 -0.073783182 0.70500004
-0.04855746 -0.073783182 0.70500004
-0.047314554 -0.073678523 0.70400006
-0.046074983 -0.073573865 0.70300001
-0.044838749 -0.073469207 0.70200002
-0.043668054 -0.073469207 0.70200002
-0.042436823 -0.073364548 0.70100003
-0.041208927 -0.073259898 0.70000005
-0.040041566 -0.073259898 0.70000005
-0.038874205 -0.073259898 0.70000005
-0.037652981 -0.073155239 0.69900006
-0.036435086 -0.073050581 0.69800001
-0.035271063 -0.073050581 0.69800001
-0.034058176 -0.072945923 0.69700003
-0.032895815 -0.072945923 0.69700003
-0.031733461 -0.072945923 0.69700003
-0.030571103 -0.072945923 0.69700003
-0.029408747 -0.072945923 0.69700003
-0.028246392 -0.072945923 0.69700003
-0.027122891 -0.073050581 0.69800001
-0.025958866 -0.073050581 0.69800001
-0.024794841 -0.073050581 0.69800001
-0.023630818 -0.073050581 0.69800001
-0.022498984 -0.073155239 0.69900006
-0.02133329 -0.073155239 0.69900006
-0.020167599 -0.073155239 0.69900006
-0.019001905 -0.073155239 0.69900006
-0.017861729 -0.073259898 0.70000005
-0.016694371 -0.073259898 0.70000005
-0.015527011 -0.073259898 0.70000005
-0.014380164 -0.073364548 0.70100003
-0.013211137 -0.073364548 0.70100003
-0.012059288 -0.073469207 0.70200002
-0.010904104 -0.073573865 0.70300001
-0.0097455848 -0.073678523 0.70400006
-0.0085837292 -0.073783182 0.70500004
-0.0074080313 -0.073783182 0.70500004
-0.0062323334 -0.073783182 0.70500004
-0.0050566355 -0.073783182 0.70500004
-0.0038809374 -0.073783182 0.70500004
-0.0027052395 -0.073783182 0.70500004
-0.0015295413 -0.073783182 0.70500004
-0.00035384321 -0.073783182 0.70500004
0.00082185486 -0.073783182 0.70500004
0.0019975528 -0.073783182 0.70500004
0.0031777518 -0.073887832 0.70600003
0.0043551177 -0.073887832 0.70600003
0.0055403197 -0.073992491 0.70700002
0.0067193531 -0.073992491 0.70700002
0.0079095578 -0.074097149 0.708
0.0090902587 -0.074097149 0.708
0.010285467 -0.074201807 0.70900005
0.011467836 -0.074201807 0.70900005
0.012668047 -0.074306466 0.71000004
0.013871592 -0.074411124 0.71100003
0.015057297 -0.074411124 0.71100003
0.016265847 -0.074515775 0.71200001
0.017502245 -0.074725091 0.71400005
0.018719131 -0.07482975 0.71500003
0.019939354 -0.074934408 0.71600002
0.021192428 -0.075143725 0.71800005
0.022420989 -0.075248376 0.71900004
0.023652887 -0.075353034 0.72000003
0.024922637 -0.07556235 0.72200006
0.026199058 -0.07577166 0.72400004
0.027444296 -0.075876318 0.72500002
0.028692868 -0.075980976 0.72600001
0.029944779 -0.076085635 0.72700006
0.031200022 -0.076190293 0.72800004
0.0324586 -0.076294944 0.72900003
0.033720512 -0.076399602 0.73000002
0.034937903 -0.076399602 0.73000002
0.036155291 -0.076399602 0.73000002
0.037423879 -0.07650426 0.73100001
-0.1086046 -0.071886554 0.69800001
-0.10744058 -0.071886554 0.69800001
-0.10627655 -0.071886554 0.69800001
