ply
format ascii 1.0
comment PCL generated
element vertex 1298
property float x
property float y
property float z
element camera 0
property float view_px
property float view_py
property float view_pz
property float x_axisx
property float x_axisy
property float x_axisz
property float y_axisx
property float y_axisy
property float y_axisz
property float z_axisx
property float z_axisy
property float z_axisz
property float focal
property float scalex
property float scaley
property float centerx
property float centery
property int viewportx
property int viewporty
property float k1
property float k2
end_header
-0.090329304 -0.07264778 0.72900003
-0.088991337 -0.072548129 0.72800004
-0.087656714 -0.072448477 0.72700006
-0.086206511 -0.072249167 0.72500002
-0.084880225 -0.072149515 0.72400004
-0.08355727 -0.072049864 0.72300005
-0.082123749 -0.071850546 0.72100002
-0.080809139 -0.071750894 0.72000003
-0.079497859 -0.071651243 0.71900004
-0.078189917 -0.071551591 0.71800005
-0.076778069 -0.071352281 0.71600002
-0.075478457 -0.071252629 0.71500003
-0.07418219 -0.071152978 0.71400005
-0.072889253 -0.071053319 0.71300006
-0.071499094 -0.070854008 0.71100003
-0.070214495 -0.070754357 0.71000004
-0.068836004 -0.070555046 0.708
-0.067559749 -0.070455395 0.70700002
-0.066192932 -0.070256084 0.70500004
-0.064925015 -0.070156433 0.70400006
-0.063569874 -0.069957122 0.70200002
-0.06231029 -0.069857471 0.70100003
-0.06105404 -0.069757819 0.70000005
-0.059801128 -0.069658168 0.69900006
-0.05855155 -0.069558509 0.69800001
-0.05730531 -0.069458857 0.69700003
-0.056062404 -0.069359198 0.69600004
-0.054822836 -0.069259547 0.69500005
-0.053586595 -0.069159888 0.69400001
-0.052353699 -0.069060236 0.69300002
-0.051124133 -0.068960585 0.69200003
-0.049897905 -0.068860933 0.69100004
-0.048675012 -0.068761282 0.69000006
-0.047524326 -0.068761282 0.69000006
-0.046306431 -0.068661623 0.68900001
-0.045157414 -0.068661623 0.68900001
-0.04394453 -0.068561964 0.68800002
-0.042797182 -0.068561964 0.68800002
-0.041589297 -0.068462312 0.68700004
-0.040443618 -0.068462312 0.68700004
-0.039240737 -0.068362661 0.68600005
-0.038096722 -0.068362661 0.68600005
-0.036898844 -0.068263009 0.68500006
-0.035756499 -0.068263009 0.68500006
-0.034614153 -0.068263009 0.68500006
-0.033422943 -0.06816335 0.68400002
-0.032282263 -0.06816335 0.68400002
-0.031141587 -0.06816335 0.68400002
-0.03000091 -0.06816335 0.68400002
-0.028860234 -0.06816335 0.68400002
-0.027679032 -0.068063699 0.68300003
-0.02654002 -0.068063699 0.68300003
-0.025401011 -0.068063699 0.68300003
-0.024262002 -0.068063699 0.68300003
-0.023089139 -0.067964047 0.68200004
-0.021983983 -0.068063699 0.68300003
-0.020844974 -0.068063699 0.68300003
-0.019705964 -0.068063699 0.68300003
-0.018566955 -0.068063699 0.68300003
-0.017427946 -0.068063699 0.68300003
-0.016288936 -0.068063699 0.68300003
-0.015127745 -0.067964047 0.68200004
-0.013990403 -0.067964047 0.68200004
-0.01285306 -0.067964047 0.68200004
-0.011715719 -0.067964047 0.68200004
-0.010578376 -0.067964047 0.68200004
-0.0094410349 -0.067964047 0.68200004
-0.0083036935 -0.067964047 0.68200004
-0.0071663507 -0.067964047 0.68200004
-0.0060290089 -0.067964047 0.68200004
-0.0048988396 -0.068063699 0.68300003
-0.00375983 -0.068063699 0.68300003
-0.0026246577 -0.06816335 0.68400002
-0.0014839804 -0.06816335 0.68400002
-0.00034380509 -0.068263009 0.68500006
0.00079970557 -0.068362661 0.68600005
0.0019437181 -0.068362661 0.68600005
0.0030922317 -0.068462312 0.68700004
0.0042440807 -0.068561964 0.68800002
0.0053914282 -0.068561964 0.68800002
0.0065482804 -0.068661623 0.68900001
0.007708468 -0.068761282 0.69000006
0.0088719903 -0.068860933 0.69100004
0.010038848 -0.068960585 0.69200003
0.01120904 -0.069060236 0.69300002
0.01238257 -0.069159888 0.69400001
0.013559434 -0.069259547 0.69500005
0.014739634 -0.069359198 0.69600004
0.015900321 -0.069359198 0.69600004
0.017085522 -0.069458857 0.69700003
0.018274061 -0.069558509 0.69800001
0.019465934 -0.069658168 0.69900006
0.020631626 -0.069658168 0.69900006
0.021828502 -0.069757819 0.70000005
0.023028713 -0.069857471 0.70100003
0.024232259 -0.069957122 0.70200002
0.025439139 -0.070056774 0.70300001
0.026649358 -0.070156433 0.70400006
0.027862908 -0.070256084 0.70500004
0.029079799 -0.070355743 0.70600003
0.030300019 -0.070455395 0.70700002
0.031523578 -0.070555046 0.708
0.032796662 -0.070754357 0.71000004
0.03402856 -0.070854008 0.71100003
0.035263792 -0.07095366 0.71200001
0.036502361 -0.071053319 0.71300006
0.037691399 -0.071053319 0.71300006
0.038934968 -0.071152978 0.71400005
0.040181875 -0.071252629 0.71500003
0.041432112 -0.071352281 0.71600002
0.042626157 -0.071352281 0.71600002
-0.12501208 -0.072509907 0.74000001
-0.12377801 -0.072509907 0.74000001
-0.12254394 -0.072509907 0.74000001
-0.12130988 -0.072509907 0.74000001
-0.12007581 -0.072509907 0.74000001
-0.11884174 -0.072509907 0.74000001
-0.11760768 -0.072509907 0.74000001
-0.11637361 -0.072509907 0.74000001
-0.11513954 -0.072509907 0.74000001
-0.11375156 -0.072411917 0.73900002
-0.11251916 -0.072411917 0.73900002
-0.11113618 -0.072313935 0.73800004
-0.10975651 -0.072215952 0.73700005
-0.10852745 -0.072215952 0.73700005
-0.1071528 -0.072117962 0.73600006
-0.10578148 -0.072019972 0.73500001
-0.10427126 -0.071823999 0.73300004
-0.10290828 -0.071726017 0.73200005
-0.10154863 -0.071628027 0.73100001
-0.10032957 -0.071628027 0.73100001
-0.099110521 -0.071628027 0.73100001
-0.097891457 -0.071628027 0.73100001
-0.096540153 -0.071530044 0.73000002
-0.095322765 -0.071530044 0.73000002
-0.09410537 -0.071530044 0.73000002
-0.09288799 -0.071530044 0.73000002
-0.091545023 -0.071432054 0.72900003
-0.090329304 -0.071432054 0.72900003
-0.088991337 -0.071334071 0.72800004
-0.087656714 -0.071236089 0.72700006
-0.086206511 -0.071040109 0.72500002
-0.084880225 -0.070942126 0.72400004
-0.08355727 -0.070844136 0.72300005
-0.082237653 -0.070746154 0.72200006
-0.080809139 -0.070550181 0.72000003
-0.079497859 -0.070452191 0.71900004
-0.078189917 -0.070354208 0.71800005
-0.076885298 -0.070256218 0.71700001
-0.075478457 -0.070060246 0.71500003
-0.07418219 -0.069962263 0.71400005
-0.072889253 -0.069864281 0.71300006
-0.071599647 -0.069766283 0.71200001
-0.070214495 -0.069570318 0.71000004
-0.068933234 -0.069472328 0.70900005
-0.067655303 -0.069374338 0.708
-0.066286825 -0.069178373 0.70600003
-0.064925015 -0.0689824 0.70400006
-0.063660428 -0.06888441 0.70300001
-0.06231029 -0.068688437 0.70100003
-0.06105404 -0.068590455 0.70000005
-0.059801128 -0.068492465 0.69900006
-0.05855155 -0.068394475 0.69800001
-0.05730531 -0.068296492 0.69700003
-0.056062404 -0.06819851 0.69600004
-0.054822836 -0.068100519 0.69500005
-0.053663813 -0.068100519 0.69500005
-0.052429244 -0.068002529 0.69400001
-0.051198013 -0.067904547 0.69300002
-0.049970116 -0.067806564 0.69200003
-0.048745554 -0.067708574 0.69100004
-0.047593199 -0.067708574 0.69100004
-0.046373643 -0.067610592 0.69000006
-0.04522296 -0.067610592 0.69000006
-0.0440084 -0.067512602 0.68900001
-0.042859387 -0.067512602 0.68900001
-0.041710369 -0.067512602 0.68900001
-0.040502485 -0.067414612 0.68800002
-0.039297938 -0.067316629 0.68700004
-0.038096722 -0.067218646 0.68600005
-0.036952708 -0.067218646 0.68600005
-0.035808697 -0.067218646 0.68600005
-0.034664687 -0.067218646 0.68600005
-0.033471808 -0.067120656 0.68500006
-0.032329462 -0.067120656 0.68500006
-0.031187119 -0.067120656 0.68500006
-0.03000091 -0.067022666 0.68400002
-0.028860234 -0.067022666 0.68400002
-0.027719557 -0.067022666 0.68400002
-0.026578877 -0.067022666 0.68400002
-0.025401011 -0.066924684 0.68300003
-0.024262002 -0.066924684 0.68300003
-0.023122992 -0.066924684 0.68300003
-0.021983983 -0.066924684 0.68300003
-0.020844974 -0.066924684 0.68300003
-0.019705964 -0.066924684 0.68300003
-0.018566955 -0.066924684 0.68300003
-0.017427946 -0.066924684 0.68300003
-0.016288936 -0.066924684 0.68300003
-0.015149926 -0.066924684 0.68300003
-0.013990403 -0.066826701 0.68200004
-0.01285306 -0.066826701 0.68200004
-0.011715719 -0.066826701 0.68200004
-0.010578376 -0.066826701 0.68200004
-0.0094410349 -0.066826701 0.68200004
-0.0083036935 -0.066826701 0.68200004
-0.0071768588 -0.066924684 0.68300003
-0.006037849 -0.066924684 0.68300003
-0.0048988396 -0.066924684 0.68300003
-0.0037653348 -0.067022666 0.68400002
-0.0026246577 -0.067022666 0.68400002
-0.0014861501 -0.067120656 0.68500006
-0.00034430702 -0.067218646 0.68600005
0.00079970557 -0.067218646 0.68600005
0.0019465515 -0.067316629 0.68700004
0.0030922317 -0.067316629 0.68700004
0.0042440807 -0.067414612 0.68800002
0.0053992649 -0.067512602 0.68900001
0.006557785 -0.067610592 0.69000006
0.007708468 -0.067610592 0.69000006
0.0088719903 -0.067708574 0.69100004
0.010038848 -0.067806564 0.69200003
0.011225215 -0.068002529 0.69400001
0.012400413 -0.068100519 0.69500005
0.013559434 -0.068100519 0.69500005
0.014739634 -0.06819851 0.69600004
0.015923167 -0.068296492 0.69700003
0.017110037 -0.068394475 0.69800001
0.018300243 -0.068492465 0.69900006
0.019493783 -0.068590455 0.70000005
0.020661142 -0.068590455 0.70000005
0.021859685 -0.068688437 0.70100003
0.023061564 -0.068786427 0.70200002
0.024266778 -0.06888441 0.70300001
0.025475327 -0.0689824 0.70400006
0.026687212 -0.069080383 0.70500004
0.02790243 -0.069178373 0.70600003
0.029120987 -0.069276355 0.70700002
0.030342877 -0.069374338 0.708
0.031568103 -0.069472328 0.70900005
0.032842856 -0.0696683 0.71100003
0.034076419 -0.069766283 0.71200001
0.035313319 -0.069864281 0.71300006
0.036553558 -0.069962263 0.71400005
0.037744261 -0.069962263 0.71400005
0.038989499 -0.070060246 0.71500003
0.040238071 -0.070158236 0.71600002
0.041432112 -0.070158236 0.71600002
0.042685691 -0.070256218 0.71700001
-0.12377801 -0.071275838 0.74000001
-0.12270954 -0.071372159 0.74100006
-0.12130988 -0.071275838 0.74000001
-0.12007581 -0.071275838 0.74000001
-0.11884174 -0.071275838 0.74000001
-0.11760768 -0.071275838 0.74000001
-0.11637361 -0.071275838 0.74000001
-0.11513954 -0.071275838 0.74000001
-0.11390548 -0.071275838 0.74000001
-0.11251916 -0.071179524 0.73900002
-0.11113618 -0.071083203 0.73800004
-0.10990544 -0.071083203 0.73800004
-0.10852745 -0.070986889 0.73700005
-0.1071528 -0.070890568 0.73600006
-0.10578148 -0.070794247 0.73500001
-0.10427126 -0.070601612 0.73300004
-0.10276768 -0.07040897 0.73100001
-0.10154863 -0.07040897 0.73100001
-0.10019232 -0.070312649 0.73000002
-0.096540153 -0.070312649 0.73000002
-0.095192187 -0.070216335 0.72900003
-0.09410537 -0.070312649 0.73000002
-0.092760749 -0.070216335 0.72900003
-0.091545023 -0.070216335 0.72900003
-0.090329304 -0.070216335 0.72900003
-0.088991337 -0.070120014 0.72800004
-0.087656714 -0.070023701 0.72700006
-0.086325414 -0.069927379 0.72600001
-0.084880225 -0.069734745 0.72400004
-0.08355727 -0.069638424 0.72300005
-0.082237653 -0.06954211 0.72200006
-0.080921367 -0.069445781 0.72100002
-0.079608425 -0.069349468 0.72000003
-0.078189917 -0.069156833 0.71800005
-0.076885298 -0.069060512 0.71700001
-0.075478457 -0.06886787 0.71500003
-0.07418219 -0.068771556 0.71400005
-0.072889253 -0.068675235 0.71300006
-0.071599647 -0.068578914 0.71200001
-0.070313387 -0.0684826 0.71100003
-0.068933234 -0.068289965 0.70900005
-0.067655303 -0.068193637 0.708
-0.066286825 -0.068001002 0.70600003
-0.065017238 -0.067904688 0.70500004
-0.063660428 -0.067712046 0.70300001
-0.062399179 -0.067615733 0.70200002
-0.06105404 -0.067423098 0.70000005
-0.059801128 -0.067326777 0.69900006
-0.05855155 -0.067230456 0.69800001
-0.05730531 -0.067134134 0.69700003
-0.056062404 -0.067037821 0.69600004
-0.054901715 -0.067037821 0.69600004
-0.053663813 -0.0669415 0.69500005
-0.052429244 -0.066845179 0.69400001
-0.051198013 -0.066748857 0.69300002
-0.050042327 -0.066748857 0.69300002
-0.048816096 -0.066652544 0.69200003
-0.047662076 -0.066652544 0.69200003
-0.046440847 -0.066556223 0.69100004
-0.045288499 -0.066556223 0.69100004
-0.044072278 -0.066459909 0.69000006
-0.042921595 -0.066459909 0.69000006
-0.041770909 -0.066459909 0.69000006
-0.040561356 -0.066363588 0.68900001
-0.03935514 -0.066267267 0.68800002
-0.038207788 -0.066267267 0.68800002
-0.037006576 -0.066170953 0.68700004
-0.035860896 -0.066170953 0.68700004
-0.034664687 -0.066074632 0.68600005
-0.033520672 -0.066074632 0.68600005
-0.032376658 -0.066074632 0.68600005
-0.031187119 -0.065978318 0.68500006
-0.030044774 -0.065978318 0.68500006
-0.028902428 -0.065978318 0.68500006
-0.027760085 -0.065978318 0.68500006
-0.026578877 -0.06588199 0.68400002
-0.025438201 -0.06588199 0.68400002
-0.024262002 -0.065785676 0.68300003
-0.023122992 -0.065785676 0.68300003
-0.021983983 -0.065785676 0.68300003
-0.020844974 -0.065785676 0.68300003
-0.019705964 -0.065785676 0.68300003
-0.018566955 -0.065785676 0.68300003
-0.017427946 -0.065785676 0.68300003
-0.016288936 -0.065785676 0.68300003
-0.015149926 -0.065785676 0.68300003
-0.014010916 -0.065785676 0.68300003
-0.01285306 -0.065689355 0.68200004
-0.011715719 -0.065689355 0.68200004
-0.010578376 -0.065689355 0.68200004
-0.0094410349 -0.065689355 0.68200004
-0.0083036935 -0.065689355 0.68200004
-0.0071768588 -0.065785676 0.68300003
-0.006037849 -0.065785676 0.68300003
-0.0048988396 -0.065785676 0.68300003
-0.0037653348 -0.06588199 0.68400002
-0.002628495 -0.065978318 0.68500006
-0.0014883197 -0.066074632 0.68600005
-0.00034430702 -0.066074632 0.68600005
0.00079970557 -0.066074632 0.68600005
0.0019465515 -0.066170953 0.68700004
0.0030967328 -0.066267267 0.68800002
0.0042440807 -0.066267267 0.68800002
0.0053992649 -0.066363588 0.68900001
0.006557785 -0.066459909 0.69000006
0.0077196397 -0.066556223 0.69100004
0.0088848295 -0.066652544 0.69200003
0.010053354 -0.066748857 0.69300002
0.011225215 -0.066845179 0.69400001
0.012400413 -0.0669415 0.69500005
0.013578943 -0.067037821 0.69600004
0.014760811 -0.067134134 0.69700003
0.015946012 -0.067230456 0.69800001
0.017110037 -0.067230456 0.69800001
0.018326422 -0.067423098 0.70000005
0.019493783 -0.067423098 0.70000005
0.020690657 -0.067519411 0.70100003
0.021890869 -0.067615733 0.70200002
0.023094416 -0.067712046 0.70300001
0.024301298 -0.067808367 0.70400006
0.025511514 -0.067904688 0.70500004
0.026725065 -0.068001002 0.70600003
0.027941952 -0.068097323 0.70700002
0.029162176 -0.068193637 0.708
0.030385736 -0.068289965 0.70900005
0.031612627 -0.068386279 0.71000004
0.032842856 -0.0684826 0.71100003
0.034076419 -0.068578914 0.71200001
0.035362847 -0.068771556 0.71400005
0.036604751 -0.06886787 0.71500003
0.037797127 -0.06886787 0.71500003
0.03904403 -0.068964191 0.71600002
0.040294267 -0.069060512 0.71700001
0.041489977 -0.069060512 0.71700001
0.042745225 -0.069156833 0.71800005
-0.12270954 -0.070136428 0.74100006
-0.12147382 -0.070136428 0.74100006
-0.12023808 -0.070136428 0.74100006
-0.11884174 -0.070041776 0.74000001
-0.11776661 -0.070136428 0.74100006
-0.11637361 -0.070041776 0.74000001
-0.11513954 -0.070041776 0.74000001
-0.11390548 -0.070041776 0.74000001
-0.11251916 -0.069947124 0.73900002
-0.11128677 -0.069947124 0.73900002
-0.10975651 -0.069757827 0.73700005
-0.10852745 -0.069757827 0.73700005
-0.10700721 -0.069568515 0.73500001
-0.10563756 -0.06947387 0.73400003
-0.104129 -0.069284566 0.73200005
-0.10140972 -0.069095261 0.73000002
-0.10005508 -0.069000617 0.72900003
-0.096407905 -0.069000617 0.72900003
-0.095192187 -0.069000617 0.72900003
-0.09397646 -0.069000617 0.72900003
-0.092633501 -0.068905964 0.72800004
-0.091419443 -0.068905964 0.72800004
-0.090205394 -0.068905964 0.72800004
-0.088991337 -0.068905964 0.72800004
-0.087536134 -0.06871666 0.72600001
-0.086206511 -0.068622008 0.72500002
-0.08499746 -0.068622008 0.72500002
-0.083672844 -0.068527356 0.72400004
-0.082237653 -0.068338059 0.72200006
-0.080921367 -0.068243407 0.72100002
-0.079608425 -0.068148755 0.72000003
-0.078189917 -0.067959458 0.71800005
-0.076885298 -0.067864798 0.71700001
-0.075584024 -0.067770146 0.71600002
-0.07418219 -0.067580849 0.71400005
-0.072889253 -0.067486197 0.71300006
-0.071599647 -0.067391545 0.71200001
-0.070313387 -0.067296892 0.71100003
-0.068933234 -0.067107596 0.70900005
-0.067655303 -0.067012936 0.708
-0.066380717 -0.066918291 0.70700002
-0.065017238 -0.066728987 0.70500004
-0.063750982 -0.066634342 0.70400006
-0.062399179 -0.066445038 0.70200002
-0.06114126 -0.066350386 0.70100003
-0.059886679 -0.066255733 0.70000005
-0.058635436 -0.066161089 0.69900006
-0.057387523 -0.066066429 0.69800001
-0.056142952 -0.065971777 0.69700003
-0.054901715 -0.065877132 0.69600004
-0.053663813 -0.06578248 0.69500005
-0.052504793 -0.06578248 0.69500005
-0.051271889 -0.065687828 0.69400001
-0.050042327 -0.065593176 0.69300002
-0.048886642 -0.065593176 0.69300002
-0.047730949 -0.065593176 0.69300002
-0.046508055 -0.065498523 0.69200003
-0.045354038 -0.065498523 0.69200003
-0.044136148 -0.065403879 0.69100004
-0.042983796 -0.065403879 0.69100004
-0.041770909 -0.065309227 0.69000006
-0.040620226 -0.065309227 0.69000006
-0.039412342 -0.065214567 0.68900001
-0.038263325 -0.065214567 0.68900001
-0.037060443 -0.065119922 0.68800002
-0.035860896 -0.06502527 0.68700004
-0.034715217 -0.06502527 0.68700004
-0.033520672 -0.064930618 0.68600005
-0.032376658 -0.064930618 0.68600005
-0.031232646 -0.064930618 0.68600005
-0.030088633 -0.064930618 0.68600005
-0.028944623 -0.064930618 0.68600005
-0.027760085 -0.064835973 0.68500006
-0.026617737 -0.064835973 0.68500006
-0.025438201 -0.064741313 0.68400002
-0.024297524 -0.064741313 0.68400002
-0.023156848 -0.064741313 0.68400002
-0.022016171 -0.064741313 0.68400002
-0.020844974 -0.064646669 0.68300003
-0.019705964 -0.064646669 0.68300003
-0.018566955 -0.064646669 0.68300003
-0.017427946 -0.064646669 0.68300003
-0.016288936 -0.064646669 0.68300003
-0.015149926 -0.064646669 0.68300003
-0.014010916 -0.064646669 0.68300003
-0.012871906 -0.064646669 0.68300003
-0.011732897 -0.064646669 0.68300003
-0.010593887 -0.064646669 0.68300003
-0.009454878 -0.064646669 0.68300003
-0.0083158687 -0.064646669 0.68300003
-0.0071768588 -0.064646669 0.68300003
-0.0060466891 -0.064741313 0.68400002
-0.0049060117 -0.064741313 0.68400002
-0.0037708401 -0.064835973 0.68500006
-0.0026323323 -0.064930618 0.68600005
-0.0014883197 -0.064930618 0.68600005
-0.00034430702 -0.064930618 0.68600005
0.00080087129 -0.06502527 0.68700004
0.0019493848 -0.065119922 0.68800002
0.0030967328 -0.065119922 0.68800002
0.0042502494 -0.065214567 0.68900001
0.0054071015 -0.065309227 0.69000006
0.0065672887 -0.065403879 0.69100004
0.0077308114 -0.065498523 0.69200003
0.0088976687 -0.065593176 0.69300002
0.010067862 -0.065687828 0.69400001
0.01124139 -0.06578248 0.69500005
0.012400413 -0.06578248 0.69500005
0.013578943 -0.065877132 0.69600004
0.014760811 -0.065971777 0.69700003
0.015946012 -0.066066429 0.69800001
0.017134549 -0.066161089 0.69900006
0.018326422 -0.066255733 0.70000005
0.019521629 -0.066350386 0.70100003
0.020720173 -0.066445038 0.70200002
0.021922052 -0.066539682 0.70300001
0.023127267 -0.066634342 0.70400006
0.024335817 -0.066728987 0.70500004
0.0255477 -0.066823639 0.70600003
0.02676292 -0.066918291 0.70700002
0.027981473 -0.067012936 0.708
0.029203368 -0.067107596 0.70900005
0.030428592 -0.067202248 0.71000004
0.031657152 -0.067296892 0.71100003
0.03288905 -0.067391545 0.71200001
0.034124281 -0.067486197 0.71300006
0.035362847 -0.067580849 0.71400005
0.036604751 -0.067675501 0.71500003
0.037849989 -0.067770146 0.71600002
0.039098561 -0.067864798 0.71700001
0.040294267 -0.067864798 0.71700001
-0.12147382 -0.068900697 0.74100006
-0.12023808 -0.068900697 0.74100006
-0.11900235 -0.068900697 0.74100006
-0.11776661 -0.068900697 0.74100006
-0.11653088 -0.068900697 0.74100006
-0.11529514 -0.068900697 0.74100006
-0.11390548 -0.068807706 0.74000001
-0.11251916 -0.068714723 0.73900002
-0.11128677 -0.068714723 0.73900002
-0.10975651 -0.068528764 0.73700005
-0.10700721 -0.06834279 0.73500001
-0.092760749 -0.067784891 0.72900003
-0.091419443 -0.067691907 0.72800004
-0.090205394 -0.067691907 0.72800004
-0.088991337 -0.067691907 0.72800004
-0.087536134 -0.067505941 0.72600001
-0.086325414 -0.067505941 0.72600001
-0.08499746 -0.067412958 0.72500002
-0.083672844 -0.067319974 0.72400004
-0.082351558 -0.067226991 0.72300005
-0.080921367 -0.067041025 0.72100002
-0.079608425 -0.066948041 0.72000003
-0.078298815 -0.066855058 0.71900004
-0.076885298 -0.066669092 0.71700001
-0.075584024 -0.066576108 0.71600002
-0.074286088 -0.066483125 0.71500003
-0.072991483 -0.066390142 0.71400005
-0.071599647 -0.066204175 0.71200001
-0.070313387 -0.066111192 0.71100003
-0.069030456 -0.066018209 0.71000004
-0.067655303 -0.065832242 0.708
-0.066380717 -0.065739259 0.70700002
-0.065109462 -0.065646276 0.70600003
-0.063750982 -0.065460309 0.70400006
-0.062488064 -0.065367319 0.70300001
-0.06114126 -0.06518136 0.70100003
-0.059886679 -0.065088376 0.70000005
-0.058635436 -0.064995393 0.69900006
-0.057387523 -0.064902402 0.69800001
-0.056142952 -0.064809427 0.69700003
-0.054901715 -0.064716443 0.69600004
-0.053741027 -0.064716443 0.69600004
-0.052504793 -0.06462346 0.69500005
-0.051345773 -0.06462346 0.69500005
-0.050114535 -0.064530469 0.69400001
-0.048957184 -0.064530469 0.69400001
-0.047799826 -0.064530469 0.69400001
-0.046575263 -0.064437486 0.69300002
-0.045419578 -0.064437486 0.69300002
-0.044200022 -0.06434451 0.69200003
-0.043046001 -0.06434451 0.69200003
-0.041831449 -0.064251527 0.69100004
-0.040679097 -0.064251527 0.69100004
-0.039469544 -0.064158544 0.69000006
-0.038263325 -0.064065553 0.68900001
-0.037114307 -0.064065553 0.68900001
-0.035913095 -0.06397257 0.68800002
-0.034765746 -0.06397257 0.68800002
-0.033569537 -0.063879594 0.68700004
-0.032423854 -0.063879594 0.68700004
-0.031232646 -0.063786611 0.68600005
-0.030088633 -0.063786611 0.68600005
-0.028944623 -0.063786611 0.68600005
-0.02780061 -0.063786611 0.68600005
-0.026617737 -0.063693628 0.68500006
-0.025475394 -0.063693628 0.68500006
-0.024297524 -0.063600637 0.68400002
-0.023156848 -0.063600637 0.68400002
-0.022016171 -0.063600637 0.68400002
-0.020875493 -0.063600637 0.68400002
-0.019734817 -0.063600637 0.68400002
-0.018594138 -0.063600637 0.68400002
-0.017453462 -0.063600637 0.68400002
-0.016312785 -0.063600637 0.68400002
-0.015172106 -0.063600637 0.68400002
-0.01403143 -0.063600637 0.68400002
-0.012890751 -0.063600637 0.68400002
-0.011750075 -0.063600637 0.68400002
-0.010609398 -0.063600637 0.68400002
-0.0094687212 -0.063600637 0.68400002
-0.0083280439 -0.063600637 0.68400002
-0.0071873665 -0.063600637 0.68400002
-0.0060466891 -0.063600637 0.68400002
-0.0049131848 -0.063693628 0.68500006
-0.0037763449 -0.063786611 0.68600005
-0.0026323323 -0.063786611 0.68600005
-0.0014883197 -0.063786611 0.68600005
-0.00034480891 -0.063879594 0.68700004
0.00080203707 -0.06397257 0.68800002
0.0019522182 -0.064065553 0.68900001
0.0031012336 -0.064065553 0.68900001
0.0042564184 -0.064158544 0.69000006
0.0054149376 -0.064251527 0.69100004
0.0065767928 -0.06434451 0.69200003
0.0077308114 -0.06434451 0.69200003
0.0088976687 -0.064437486 0.69300002
0.010067862 -0.064530469 0.69400001
0.01124139 -0.06462346 0.69500005
0.012418254 -0.064716443 0.69600004
0.013598453 -0.064809427 0.69700003
0.014781988 -0.064902402 0.69800001
0.015946012 -0.064902402 0.69800001
0.017134549 -0.064995393 0.69900006
0.018326422 -0.065088376 0.70000005
0.019521629 -0.06518136 0.70100003
0.020720173 -0.065274343 0.70200002
0.021922052 -0.065367319 0.70300001
0.023127267 -0.065460309 0.70400006
0.024370335 -0.065646276 0.70600003
0.025583886 -0.065739259 0.70700002
0.026800772 -0.065832242 0.708
0.028020997 -0.065925226 0.70900005
0.029244557 -0.066018209 0.71000004
0.030428592 -0.066018209 0.71000004
0.031657152 -0.066111192 0.71100003
0.03288905 -0.066204175 0.71200001
0.034124281 -0.066297159 0.71300006
0.035412375 -0.066483125 0.71500003
0.036655948 -0.066576108 0.71600002
0.037849989 -0.066576108 0.71600002
0.039098561 -0.066669092 0.71700001
0.040350471 -0.066762075 0.71800005
0.041547846 -0.066762075 0.71800005
-0.088869102 -0.066386543 0.72700006
-0.087656714 -0.066386543 0.72700006
-0.086206511 -0.066203907 0.72500002
-0.08499746 -0.066203907 0.72500002
-0.083672844 -0.066112593 0.72400004
-0.082351558 -0.066021279 0.72300005
-0.08103361 -0.065929964 0.72200006
-0.079608425 -0.065747328 0.72000003
-0.078298815 -0.065656014 0.71900004
-0.076992534 -0.065564699 0.71800005
-0.075584024 -0.065382063 0.71600002
-0.074286088 -0.065290749 0.71500003
-0.072991483 -0.065199435 0.71400005
-0.071700215 -0.06510812 0.71300006
-0.070313387 -0.064925484 0.71100003
-0.069030456 -0.06483417 0.71000004
-0.067750864 -0.064742856 0.70900005
-0.066474602 -0.064651541 0.708
-0.065109462 -0.064468913 0.70600003
-0.063841537 -0.064377591 0.70500004
-0.062488064 -0.064194962 0.70300001
-0.061228476 -0.064103648 0.70200002
-0.059886679 -0.063921019 0.70000005
-0.058719322 -0.063921019 0.70000005
-0.057469744 -0.063829705 0.69900006
-0.056223501 -0.063738383 0.69800001
-0.054980595 -0.063647069 0.69700003
-0.053741027 -0.063555755 0.69600004
-0.052580338 -0.063555755 0.69600004
-0.051345773 -0.06346444 0.69500005
-0.05018675 -0.06346444 0.69500005
-0.04902773 -0.06346444 0.69500005
-0.047868703 -0.06346444 0.69500005
-0.046642471 -0.063373119 0.69400001
-0.045419578 -0.063281804 0.69300002
-0.044263892 -0.063281804 0.69300002
-0.043046001 -0.06319049 0.69200003
-0.041891985 -0.06319049 0.69200003
-0.040679097 -0.063099176 0.69100004
-0.039469544 -0.063007861 0.69000006
-0.038318861 -0.063007861 0.69000006
-0.037168179 -0.063007861 0.69000006
-0.035965294 -0.06291654 0.68900001
-0.034765746 -0.062825225 0.68800002
-0.033618398 -0.062825225 0.68800002
-0.032423854 -0.062733911 0.68700004
-0.031278174 -0.062733911 0.68700004
-0.030088633 -0.062642597 0.68600005
-0.028944623 -0.062642597 0.68600005
-0.02780061 -0.062642597 0.68600005
-0.026656596 -0.062642597 0.68600005
-0.025475394 -0.062551282 0.68500006
-0.024333049 -0.062551282 0.68500006
-0.023190705 -0.062551282 0.68500006
-0.022016171 -0.062459961 0.68400002
-0.020875493 -0.062459961 0.68400002
-0.019734817 -0.062459961 0.68400002
-0.018594138 -0.062459961 0.68400002
-0.017453462 -0.062459961 0.68400002
-0.016312785 -0.062459961 0.68400002
-0.015172106 -0.062459961 0.68400002
-0.01403143 -0.062459961 0.68400002
-0.012890751 -0.062459961 0.68400002
-0.011750075 -0.062459961 0.68400002
-0.010609398 -0.062459961 0.68400002
-0.0094687212 -0.062459961 0.68400002
-0.00834022 -0.062551282 0.68500006
-0.0071978746 -0.062551282 0.68500006
-0.0060555297 -0.062551282 0.68500006
-0.0049203574 -0.062642597 0.68600005
-0.0037763449 -0.062642597 0.68600005
-0.0026361693 -0.062733911 0.68700004
-0.0014904892 -0.062733911 0.68700004
-0.00034531081 -0.062825225 0.68800002
0.0008032028 -0.06291654 0.68900001
0.0019550517 -0.063007861 0.69000006
0.0031057349 -0.063007861 0.69000006
0.0042625871 -0.063099176 0.69100004
0.0054227738 -0.06319049 0.69200003
0.0065767928 -0.06319049 0.69200003
0.0077419826 -0.063281804 0.69300002
0.0089105079 -0.063373119 0.69400001
0.01008237 -0.06346444 0.69500005
0.011257565 -0.063555755 0.69600004
0.012418254 -0.063555755 0.69600004
0.013598453 -0.063647069 0.69700003
0.014781988 -0.063738383 0.69800001
0.015968857 -0.063829705 0.69900006
0.017159063 -0.063921019 0.70000005
0.018326422 -0.063921019 0.70000005
0.019549478 -0.064103648 0.70200002
0.020749688 -0.064194962 0.70300001
0.021953236 -0.064286277 0.70400006
0.023160119 -0.064377591 0.70500004
0.024370335 -0.064468913 0.70600003
0.025583886 -0.064560227 0.70700002
0.026800772 -0.064651541 0.708
0.028020997 -0.064742856 0.70900005
0.029244557 -0.06483417 0.71000004
0.03047145 -0.064925484 0.71100003
0.031701677 -0.065016799 0.71200001
0.032935243 -0.06510812 0.71300006
0.03417214 -0.065199435 0.71400005
0.035412375 -0.065290749 0.71500003
0.036655948 -0.065382063 0.71600002
0.037849989 -0.065382063 0.71600002
0.039098561 -0.065473378 0.71700001
0.040294267 -0.065473378 0.71700001
0.041547846 -0.065564699 0.71800005
-0.088991337 -0.0652638 0.72800004
-0.087536134 -0.065084502 0.72600001
-0.086325414 -0.065084502 0.72600001
-0.08499746 -0.064994857 0.72500002
-0.083672844 -0.064905211 0.72400004
-0.082351558 -0.064815566 0.72300005
-0.08103361 -0.064725913 0.72200006
-0.079718992 -0.06463626 0.72100002
-0.078407712 -0.064546615 0.72000003
-0.076992534 -0.064367324 0.71800005
-0.075689584 -0.064277671 0.71700001
-0.074389979 -0.064188026 0.71600002
-0.072991483 -0.064008728 0.71400005
-0.071700215 -0.063919082 0.71300006
-0.070412278 -0.063829429 0.71200001
-0.069127686 -0.063739784 0.71100003
-0.067750864 -0.063560493 0.70900005
-0.066474602 -0.06347084 0.708
-0.065201677 -0.063381188 0.70700002
-0.063841537 -0.063201897 0.70500004
-0.062576957 -0.063112251 0.70400006
-0.061228476 -0.062932953 0.70200002
-0.05997223 -0.0628433 0.70100003
-0.058719322 -0.062753655 0.70000005
-0.057469744 -0.06266401 0.69900006
-0.056223501 -0.062574357 0.69800001
-0.054980595 -0.062484711 0.69700003
-0.053818241 -0.062484711 0.69700003
-0.052580338 -0.062395062 0.69600004
-0.051419649 -0.062395062 0.69600004
-0.05018675 -0.062305417 0.69500005
-0.04902773 -0.062305417 0.69500005
-0.047868703 -0.062305417 0.69500005
-0.046709683 -0.062305417 0.69500005
-0.045485117 -0.062215764 0.69400001
-0.044327766 -0.062215764 0.69400001
-0.043108206 -0.062126119 0.69300002
-0.041952521 -0.062126119 0.69300002
-0.040737968 -0.06203647 0.69200003
-0.039526746 -0.061946824 0.69100004
-0.038318861 -0.061857179 0.69000006
-0.037168179 -0.061857179 0.69000006
-0.036017496 -0.061857179 0.69000006
-0.034816276 -0.061767526 0.68900001
-0.033618398 -0.061677877 0.68800002
-0.03247105 -0.061677877 0.68800002
-0.031278174 -0.061588231 0.68700004
-0.030132495 -0.061588231 0.68700004
-0.028986815 -0.061588231 0.68700004
-0.02780061 -0.061498582 0.68600005
-0.026656596 -0.061498582 0.68600005
-0.025512584 -0.061498582 0.68600005
-0.024333049 -0.061408937 0.68500006
-0.023190705 -0.061408937 0.68500006
-0.02204836 -0.061408937 0.68500006
-0.020875493 -0.061319284 0.68400002
-0.019734817 -0.061319284 0.68400002
-0.018594138 -0.061319284 0.68400002
-0.01747898 -0.061408937 0.68500006
-0.016336635 -0.061408937 0.68500006
-0.015194289 -0.061408937 0.68500006
-0.014051945 -0.061408937 0.68500006
-0.012909599 -0.061408937 0.68500006
-0.011767254 -0.061408937 0.68500006
-0.01062491 -0.061408937 0.68500006
-0.0094825653 -0.061408937 0.68500006
-0.00834022 -0.061408937 0.68500006
-0.0072083822 -0.061498582 0.68600005
-0.0060643698 -0.061498582 0.68600005
-0.0049203574 -0.061498582 0.68600005
-0.0037818495 -0.061588231 0.68700004
-0.0026361693 -0.061588231 0.68700004
-0.0014926587 -0.061677877 0.68800002
-0.0003458127 -0.061767526 0.68900001
0.00080436858 -0.061857179 0.69000006
0.0019550517 -0.061857179 0.69000006
0.003110236 -0.061946824 0.69100004
0.0042687557 -0.06203647 0.69200003
0.0054306104 -0.062126119 0.69300002
0.0065862965 -0.062126119 0.69300002
0.0077531543 -0.062215764 0.69400001
0.0089233471 -0.062305417 0.69500005
0.010096876 -0.062395062 0.69600004
0.011257565 -0.062395062 0.69600004
0.012436097 -0.062484711 0.69700003
0.013617963 -0.062574357 0.69800001
0.014803167 -0.06266401 0.69900006
0.015991703 -0.062753655 0.70000005
0.017159063 -0.062753655 0.70000005
0.018352604 -0.0628433 0.70100003
0.019549478 -0.062932953 0.70200002
0.020749688 -0.063022599 0.70300001
0.021984421 -0.063201897 0.70500004
0.02319297 -0.063291542 0.70600003
0.024404854 -0.063381188 0.70700002
0.025620071 -0.06347084 0.708
0.026838629 -0.063560493 0.70900005
0.028060518 -0.063650139 0.71000004
0.029285746 -0.063739784 0.71100003
0.03047145 -0.063739784 0.71100003
0.031701677 -0.063829429 0.71200001
0.032935243 -0.063919082 0.71300006
0.03417214 -0.064008728 0.71400005
0.035412375 -0.064098381 0.71500003
0.036655948 -0.064188026 0.71600002
0.037902851 -0.064277671 0.71700001
0.039153092 -0.064367324 0.71800005
0.040350471 -0.064367324 0.71800005
0.041605711 -0.064456969 0.71900004
-0.087656714 -0.063961767 0.72700006
-0.086325414 -0.063873783 0.72600001
-0.085114695 -0.063873783 0.72600001
-0.08378841 -0.063785806 0.72500002
-0.082465455 -0.06369783 0.72400004
-0.081145845 -0.063609846 0.72300005
-0.079718992 -0.063433886 0.72100002
-0.078407712 -0.063345902 0.72000003
-0.07709977 -0.063257925 0.71900004
-0.075795151 -0.063169949 0.71800005
-0.074389979 -0.062993981 0.71600002
-0.073093712 -0.062906004 0.71500003
-0.071700215 -0.062730044 0.71300006
-0.070412278 -0.06264206 0.71200001
-0.069127686 -0.062554084 0.71100003
-0.067846425 -0.0624661 0.71000004
-0.066474602 -0.062290136 0.708
-0.065201677 -0.062202159 0.70700002
-0.063932091 -0.062114179 0.70600003
-0.062576957 -0.061938219 0.70400006
-0.061315697 -0.061850235 0.70300001
-0.05997223 -0.061674278 0.70100003
-0.058719322 -0.061586298 0.70000005
-0.057551961 -0.061586298 0.70000005
-0.056304052 -0.061498318 0.69900006
-0.055059478 -0.061410334 0.69800001
-0.053818241 -0.061322354 0.69700003
-0.052580338 -0.061234374 0.69600004
-0.051419649 -0.061234374 0.69600004
-0.050258961 -0.061234374 0.69600004
-0.04902773 -0.061146397 0.69500005
-0.047868703 -0.061146397 0.69500005
-0.046709683 -0.061146397 0.69500005
-0.045550663 -0.061146397 0.69500005
-0.044327766 -0.061058413 0.69400001
-0.043170411 -0.061058413 0.69400001
-0.041952521 -0.060970433 0.69300002
-0.040737968 -0.060882453 0.69200003
-0.039583948 -0.060882453 0.69200003
-0.038374394 -0.060794473 0.69100004
-0.037168179 -0.060706496 0.69000006
-0.036017496 -0.060706496 0.69000006
-0.034816276 -0.060618509 0.68900001
-0.033667263 -0.060618509 0.68900001
-0.03247105 -0.060530532 0.68800002
-0.031323701 -0.060530532 0.68800002
-0.030176355 -0.060530532 0.68800002
-0.028986815 -0.060442552 0.68700004
-0.027841136 -0.060442552 0.68700004
-0.026656596 -0.060354572 0.68600005
-0.025512584 -0.060354572 0.68600005
-0.024368571 -0.060354572 0.68600005
-0.023190705 -0.060266592 0.68500006
-0.02204836 -0.060266592 0.68500006
-0.020906014 -0.060266592 0.68500006
-0.019763669 -0.060266592 0.68500006
-0.018621324 -0.060266592 0.68500006
-0.01747898 -0.060266592 0.68500006
-0.016336635 -0.060266592 0.68500006
-0.015194289 -0.060266592 0.68500006
-0.014051945 -0.060266592 0.68500006
-0.012909599 -0.060266592 0.68500006
-0.011784432 -0.060354572 0.68600005
-0.01064042 -0.060354572 0.68600005
-0.0094964076 -0.060354572 0.68600005
-0.0083523951 -0.060354572 0.68600005
-0.0072083822 -0.060354572 0.68600005
-0.0060643698 -0.060354572 0.68600005
-0.0049275295 -0.060442552 0.68700004
-0.0037873543 -0.060530532 0.68800002
-0.0026400066 -0.060530532 0.68800002
-0.0014948283 -0.060618509 0.68900001
-0.00034631463 -0.060706496 0.69000006
0.00080436858 -0.060706496 0.69000006
0.001957885 -0.060794473 0.69100004
0.0031147369 -0.060882453 0.69200003
0.0042749243 -0.060970433 0.69300002
0.0054384465 -0.061058413 0.69400001
0.0066053048 -0.061146397 0.69500005
0.0077643264 -0.061146397 0.69500005
0.0089361863 -0.061234374 0.69600004
0.010096876 -0.061234374 0.69600004
0.011273739 -0.061322354 0.69700003
0.012453939 -0.061410334 0.69800001
0.013637474 -0.061498318 0.69900006
0.014803167 -0.061498318 0.69900006
0.015991703 -0.061586298 0.70000005
0.017183576 -0.061674278 0.70100003
0.018378783 -0.061762255 0.70200002
0.019577326 -0.061850235 0.70300001
0.020779205 -0.061938219 0.70400006
0.021984421 -0.062026199 0.70500004
0.02319297 -0.062114179 0.70600003
0.024404854 -0.062202159 0.70700002
0.025620071 -0.062290136 0.708
0.026838629 -0.062378123 0.70900005
0.028060518 -0.0624661 0.71000004
0.029285746 -0.062554084 0.71100003
0.030514305 -0.06264206 0.71200001
0.031746205 -0.062730044 0.71300006
0.032981433 -0.062818021 0.71400005
0.034219999 -0.062906004 0.71500003
0.035461903 -0.062993981 0.71600002
0.036707141 -0.063081965 0.71700001
0.037902851 -0.063081965 0.71700001
0.039153092 -0.063169949 0.71800005
0.040350471 -0.063169949 0.71800005
0.041605711 -0.063257925 0.71900004
-0.086325414 -0.062663071 0.72600001
-0.085114695 -0.062663071 0.72600001
-0.08378841 -0.062576756 0.72500002
-0.082579359 -0.062576756 0.72500002
-0.081258073 -0.062490445 0.72400004
-0.079829559 -0.062317822 0.72200006
-0.07851661 -0.062231503 0.72100002
-0.077206999 -0.062145192 0.72000003
-0.075795151 -0.06197257 0.71800005
-0.074493878 -0.061886251 0.71700001
-0.073195942 -0.06179994 0.71600002
-0.071800776 -0.061627317 0.71400005
-0.070511177 -0.061541006 0.71300006
-0.069127686 -0.061368376 0.71100003
-0.067846425 -0.061282065 0.71000004
-0.066568501 -0.061195754 0.70900005
-0.065293901 -0.061109439 0.708
-0.064022645 -0.061023124 0.70700002
-0.062665842 -0.060850501 0.70500004
-0.061402921 -0.06076419 0.70400006
-0.060057782 -0.060591564 0.70200002
-0.058803204 -0.060505249 0.70100003
-0.057551961 -0.060418937 0.70000005
-0.056304052 -0.060332626 0.69900006
-0.055059478 -0.060246311 0.69800001
-0.053818241 -0.06016 0.69700003
-0.052655883 -0.06016 0.69700003
-0.051419649 -0.060073685 0.69600004
-0.050258961 -0.060073685 0.69600004
-0.049098272 -0.060073685 0.69600004
-0.047868703 -0.059987374 0.69500005
-0.046709683 -0.059987374 0.69500005
-0.045550663 -0.059987374 0.69500005
-0.04439164 -0.059987374 0.69500005
-0.043170411 -0.059901059 0.69400001
-0.042013057 -0.059901059 0.69400001
-0.040796835 -0.059814747 0.69300002
-0.039583948 -0.059728436 0.69200003
-0.038429927 -0.059728436 0.69200003
-0.037222043 -0.059642125 0.69100004
-0.036017496 -0.05955581 0.69000006
-0.034866814 -0.05955581 0.69000006
-0.033667263 -0.059469495 0.68900001
-0.032518245 -0.059469495 0.68900001
-0.031369232 -0.059469495 0.68900001
-0.030176355 -0.059383184 0.68800002
-0.029029008 -0.059383184 0.68800002
-0.027841136 -0.059296872 0.68700004
-0.026695453 -0.059296872 0.68700004
-0.025512584 -0.059210561 0.68600005
-0.024368571 -0.059210561 0.68600005
-0.023224559 -0.059210561 0.68600005
-0.022080546 -0.059210561 0.68600005
-0.020936534 -0.059210561 0.68600005
-0.019792521 -0.059210561 0.68600005
-0.018621324 -0.05912425 0.68500006
-0.017504496 -0.059210561 0.68600005
-0.016360484 -0.059210561 0.68600005
-0.015216471 -0.059210561 0.68600005
-0.014072458 -0.059210561 0.68600005
-0.012928445 -0.059210561 0.68600005
-0.011784432 -0.059210561 0.68600005
-0.01064042 -0.059210561 0.68600005
-0.0094964076 -0.059210561 0.68600005
-0.0083523951 -0.059210561 0.68600005
-0.0072188899 -0.059296872 0.68700004
-0.0060732099 -0.059296872 0.68700004
-0.0049347021 -0.059383184 0.68800002
-0.0037873543 -0.059383184 0.68800002
-0.0026438436 -0.059469495 0.68900001
-0.0014969979 -0.05955581 0.69000006
-0.00034631463 -0.05955581 0.69000006
0.00080553431 -0.059642125 0.69100004
0.0019607185 -0.059728436 0.69200003
0.003119238 -0.059814747 0.69300002
0.0042810929 -0.059901059 0.69400001
0.0054462831 -0.059987374 0.69500005
0.0066053048 -0.059987374 0.69500005
0.0077754981 -0.060073685 0.69600004
0.0089490255 -0.06016 0.69700003
0.010111383 -0.06016 0.69700003
0.011289913 -0.060246311 0.69800001
0.012471782 -0.060332626 0.69900006
0.013656983 -0.060418937 0.70000005
0.014824344 -0.060418937 0.70000005
0.015991703 -0.060418937 0.70000005
0.017183576 -0.060505249 0.70100003
0.018378783 -0.060591564 0.70200002
0.019577326 -0.060677875 0.70300001
0.020808721 -0.060850501 0.70500004
0.022015603 -0.060936812 0.70600003
0.02322582 -0.061023124 0.70700002
0.024439372 -0.061109439 0.708
0.025620071 -0.061109439 0.708
0.026838629 -0.061195754 0.70900005
0.02810004 -0.061368376 0.71100003
0.029326934 -0.061454687 0.71200001
0.030557165 -0.061541006 0.71300006
0.031746205 -0.061541006 0.71300006
0.033027627 -0.061713628 0.71500003
0.034219999 -0.061713628 0.71500003
0.03551143 -0.061886251 0.71700001
0.036758337 -0.06197257 0.71800005
0.037955716 -0.06197257 0.71800005
0.039207622 -0.062058881 0.71900004
0.040406667 -0.062058881 0.71900004
0.041663576 -0.062145192 0.72000003
-0.086325414 -0.061452348 0.72600001
-0.085114695 -0.061452348 0.72600001
-0.083903976 -0.061452348 0.72600001
-0.082579359 -0.061367705 0.72500002
-0.081258073 -0.061283059 0.72400004
-0.079940125 -0.061198417 0.72300005
-0.078625515 -0.061113771 0.72200006
-0.077206999 -0.060944479 0.72000003
-0.075900719 -0.060859837 0.71900004
-0.074597776 -0.060775191 0.71800005
-0.073195942 -0.060605898 0.71600002
-0.071901336 -0.060521256 0.71500003
-0.070610069 -0.06043661 0.71400005
-0.069224909 -0.060267318 0.71200001
-0.067941979 -0.060182672 0.71100003
-0.066662386 -0.06009803 0.71000004
-0.065386131 -0.060013384 0.70900005
-0.0641132 -0.059928738 0.708
-0.062754728 -0.059759449 0.70600003
-0.061490141 -0.059674803 0.70500004
-0.060143333 -0.059505511 0.70300001
-0.058887087 -0.059420869 0.70200002
-0.057634179 -0.059336223 0.70100003
-0.056384601 -0.05925158 0.70000005
-0.055138361 -0.059166934 0.69900006
-0.053895451 -0.059082285 0.69800001
-0.052655883 -0.058997642 0.69700003
-0.051493526 -0.058997642 0.69700003
-0.050331172 -0.058997642 0.69700003
-0.049098272 -0.058913 0.69600004
-0.047937579 -0.058913 0.69600004
-0.046776891 -0.058913 0.69600004
-0.045550663 -0.058828354 0.69500005
-0.04439164 -0.058828354 0.69500005
-0.04323262 -0.058828354 0.69500005
-0.042013057 -0.058743704 0.69400001
-0.040855706 -0.058743704 0.69400001
-0.039641149 -0.058659062 0.69300002
-0.038429927 -0.058574416 0.69200003
-0.03727591 -0.058574416 0.69200003
-0.036069695 -0.058489773 0.69100004
-0.034917343 -0.058489773 0.69100004
-0.033716127 -0.058405127 0.69000006
-0.032565445 -0.058405127 0.69000006
-0.031369232 -0.058320481 0.68900001
-0.030220216 -0.058320481 0.68900001
-0.029029008 -0.058235835 0.68800002
-0.02788166 -0.058235835 0.68800002
-0.026695453 -0.058151193 0.68700004
-0.025549773 -0.058151193 0.68700004
-0.024404094 -0.058151193 0.68700004
-0.023224559 -0.058066547 0.68600005
-0.022080546 -0.058066547 0.68600005
-0.020936534 -0.058066547 0.68600005
-0.019792521 -0.058066547 0.68600005
-0.018648507 -0.058066547 0.68600005
-0.017504496 -0.058066547 0.68600005
-0.016360484 -0.058066547 0.68600005
-0.015216471 -0.058066547 0.68600005
-0.014072458 -0.058066547 0.68600005
-0.012928445 -0.058066547 0.68600005
-0.011801611 -0.058151193 0.68700004
-0.01065593 -0.058151193 0.68700004
-0.0095102508 -0.058151193 0.68700004
-0.0083645703 -0.058151193 0.68700004
-0.0072188899 -0.058151193 0.68700004
-0.00608205 -0.058235835 0.68800002
-0.0049347021 -0.058235835 0.68800002
-0.0037928591 -0.058320481 0.68900001
-0.0026476812 -0.058405127 0.69000006
-0.0014969979 -0.058405127 0.69000006
-0.00034681652 -0.058489773 0.69100004
0.00080786581 -0.058659062 0.69300002
0.0019635519 -0.058659062 0.69300002
0.003123739 -0.058743704 0.69400001
0.004287262 -0.058828354 0.69500005
0.0054541193 -0.058913 0.69600004
0.0066243126 -0.058997642 0.69700003
0.0077866698 -0.058997642 0.69700003
0.0089618647 -0.059082285 0.69800001
0.010140398 -0.059166934 0.69900006
0.011306089 -0.059166934 0.69900006
0.012489624 -0.05925158 0.70000005
0.013656983 -0.05925158 0.70000005
0.014845521 -0.059336223 0.70100003
0.016014548 -0.059336223 0.70100003
0.017208088 -0.059420869 0.70200002
0.018404964 -0.059505511 0.70300001
0.019605177 -0.059590161 0.70400006
0.020808721 -0.059674803 0.70500004
0.022015603 -0.059759449 0.70600003
0.02322582 -0.059844092 0.70700002
0.024439372 -0.059928738 0.708
0.025656261 -0.060013384 0.70900005
0.026876483 -0.06009803 0.71000004
0.02810004 -0.060182672 0.71100003
0.029326934 -0.060267318 0.71200001
0.030557165 -0.060351968 0.71300006
0.03179073 -0.06043661 0.71400005
0.033027627 -0.060521256 0.71500003
0.034267861 -0.060605898 0.71600002
0.03551143 -0.060690541 0.71700001
0.036809534 -0.060859837 0.71900004
0.038008578 -0.060859837 0.71900004
0.039262153 -0.060944479 0.72000003
0.040462866 -0.060944479 0.72000003
0.041721445 -0.061029125 0.72100002
-0.086444326 -0.060324613 0.72700006
-0.085114695 -0.060241632 0.72600001
-0.083903976 -0.060241632 0.72600001
-0.082579359 -0.060158655 0.72500002
-0.081370309 -0.060158655 0.72500002
-0.080050692 -0.060075678 0.72400004
-0.078734413 -0.059992701 0.72300005
-0.077314228 -0.059826743 0.72100002
-0.076006278 -0.059743766 0.72000003
-0.074701674 -0.059660792 0.71900004
-0.073298164 -0.059494834 0.71700001
-0.072001897 -0.059411857 0.71600002
-0.070610069 -0.059245903 0.71400005
-0.069322139 -0.059162926 0.71300006
-0.06803754 -0.059079945 0.71200001
-0.066756278 -0.058996972 0.71100003
-0.065478355 -0.058913995 0.71000004
-0.0641132 -0.058748037 0.708
-0.062843613 -0.05866506 0.70700002
-0.061577357 -0.058582082 0.70600003
-0.060228892 -0.058416132 0.70400006
-0.058970973 -0.058333147 0.70300001
-0.057634179 -0.058167197 0.70100003
-0.056384601 -0.05808422 0.70000005
-0.055138361 -0.058001243 0.69900006
-0.053972669 -0.058001243 0.69900006
-0.052731428 -0.057918262 0.69800001
-0.051567405 -0.057918262 0.69800001
-0.050331172 -0.057835285 0.69700003
-0.049168814 -0.057835285 0.69700003
-0.047937579 -0.057752311 0.69600004
-0.046776891 -0.057752311 0.69600004
-0.045616202 -0.057752311 0.69600004
-0.04439164 -0.057669334 0.69500005
-0.04323262 -0.057669334 0.69500005
-0.0420736 -0.057669334 0.69500005
-0.040855706 -0.057586353 0.69400001
-0.039698351 -0.057586353 0.69400001
-0.03848546 -0.057503376 0.69300002
-0.03727591 -0.057420399 0.69200003
-0.03612189 -0.057420399 0.69200003
-0.034917343 -0.057337422 0.69100004
-0.033716127 -0.057254445 0.69000006
-0.032565445 -0.057254445 0.69000006
-0.031414762 -0.057254445 0.69000006
-0.030220216 -0.057171464 0.68900001
-0.029071201 -0.057171464 0.68900001
-0.027922185 -0.057171464 0.68900001
-0.026734309 -0.057088487 0.68800002
-0.025586963 -0.057088487 0.68800002
-0.024404094 -0.057005513 0.68700004
-0.023258414 -0.057005513 0.68700004
-0.022112735 -0.057005513 0.68700004
-0.020967053 -0.057005513 0.68700004
-0.019821374 -0.057005513 0.68700004
-0.018675692 -0.057005513 0.68700004
-0.017530013 -0.057005513 0.68700004
-0.016384333 -0.057005513 0.68700004
-0.015238651 -0.057005513 0.68700004
-0.014092972 -0.057005513 0.68700004
-0.012947291 -0.057005513 0.68700004
-0.011801611 -0.057005513 0.68700004
-0.010671441 -0.057088487 0.68800002
-0.0095240939 -0.057088487 0.68800002
-0.0083767455 -0.057088487 0.68800002
-0.007229398 -0.057088487 0.68800002
-0.0060908897 -0.057171464 0.68900001
-0.0049418746 -0.057171464 0.68900001
-0.0037983644 -0.057254445 0.69000006
-0.0026476812 -0.057254445 0.69000006
-0.0014991674 -0.057337422 0.69100004
-0.00034731842 -0.057420399 0.69200003
0.00080786581 -0.057503376 0.69300002
0.0019692187 -0.057669334 0.69500005
0.0031282404 -0.057669334 0.69500005
0.0042934306 -0.057752311 0.69600004
0.0054619559 -0.057835285 0.69700003
0.0066338168 -0.057918262 0.69800001
0.007797841 -0.057918262 0.69800001
0.0089747049 -0.058001243 0.69900006
0.010140398 -0.058001243 0.69900006
0.011322264 -0.05808422 0.70000005
0.012489624 -0.05808422 0.70000005
0.013676493 -0.058167197 0.70100003
0.014866699 -0.058250174 0.70200002
0.016037393 -0.058250174 0.70200002
0.017232601 -0.058333147 0.70300001
0.018431146 -0.058416132 0.70400006
0.019633023 -0.058499105 0.70500004
0.020838236 -0.058582082 0.70600003
0.022046786 -0.05866506 0.70700002
0.023258671 -0.058748037 0.708
0.024473893 -0.058831017 0.70900005
0.025692446 -0.058913995 0.71000004
0.026914336 -0.058996972 0.71100003
0.028139561 -0.059079945 0.71200001
0.029368127 -0.059162926 0.71300006
0.030600021 -0.059245903 0.71400005
0.031835251 -0.05932888 0.71500003
0.033073816 -0.059411857 0.71600002
0.034363583 -0.059577815 0.71800005
0.035560958 -0.059577815 0.71800005
0.036860727 -0.059743766 0.72000003
0.03806144 -0.059743766 0.72000003
0.039262153 -0.059743766 0.72000003
0.040519062 -0.059826743 0.72100002
0.041779313 -0.059909724 0.72200006
-0.086444326 -0.059112221 0.72700006
-0.085231937 -0.059112221 0.72700006
-0.083903976 -0.059030905 0.72600001
-0.082693264 -0.059030905 0.72600001
-0.081370309 -0.058949597 0.72500002
-0.080050692 -0.058868289 0.72400004
-0.078734413 -0.058786981 0.72300005
-0.077421464 -0.058705673 0.72200006
-0.076006278 -0.058543049 0.72000003
-0.074701674 -0.058461741 0.71900004
-0.073400401 -0.058380432 0.71800005
-0.072001897 -0.058217809 0.71600002
-0.07070896 -0.0581365 0.71500003
