ply
format ascii 1.0
comment PCL generated
element vertex 1349
property float x
property float y
property float z
element camera 0
property float view_px
property float view_py
property float view_pz
property float x_axisx
property float x_axisy
property float x_axisz
property float y_axisx
property float y_axisy
property float y_axisz
property float z_axisx
property float z_axisy
property float z_axisz
property float focal
property float scalex
property float scaley
property float centerx
property float centery
property int viewportx
property int viewporty
property float k1
property float k2
end_header
0.014421969 -0.1428189 0.68100005
0.015580487 -0.14302862 0.68200004
0.016742341 -0.14323834 0.68300003
0.017907532 -0.14344804 0.68400002
0.019076059 -0.14365777 0.68500006
0.020247919 -0.14386749 0.68600005
0.021454299 -0.14428693 0.68800002
0.022634499 -0.14449663 0.68900001
0.023818033 -0.14470637 0.69000006
0.025004903 -0.14491609 0.69100004
0.02623296 -0.14533553 0.69300002
0.027428167 -0.14554524 0.69400001
0.028626714 -0.14575496 0.69500005
0.029785736 -0.14575496 0.69500005
0.03098928 -0.14596468 0.69600004
0.03219616 -0.1461744 0.69700003
0.033358518 -0.1461744 0.69700003
0.034520876 -0.1461744 0.69700003
0.035683233 -0.1461744 0.69700003
0.036845587 -0.1461744 0.69700003
0.037953414 -0.14596468 0.69600004
0.039001703 -0.14554524 0.69400001
0.040043328 -0.14512581 0.69200003
0.041018747 -0.14449663 0.68900001
0.041984159 -0.14386749 0.68600005
0.043065302 -0.14365777 0.68500006
0.044143107 -0.14344804 0.68400002
0.045217581 -0.14323834 0.68300003
0.046288718 -0.14302862 0.68200004
0.0474956 -0.14323834 0.68300003
0.048705816 -0.14344804 0.68400002
0.049846496 -0.14344804 0.68400002
0.050987173 -0.14344804 0.68400002
0.052127849 -0.14344804 0.68400002
0.053346407 -0.14365777 0.68500006
0.054488752 -0.14365777 0.68500006
0.055631097 -0.14365777 0.68500006
0.056856323 -0.14386749 0.68600005
0.057915784 -0.14365777 0.68500006
0.058885694 -0.14323834 0.68300003
0.059936821 -0.14302862 0.68200004
0.060895056 -0.14260916 0.68000001
0.061755415 -0.14198002 0.67700005
0.063540645 -0.14093143 0.67200005
0.064565085 -0.14072169 0.671
0.065586194 -0.14051197 0.67000002
0.066603966 -0.14030226 0.66900003
0.067719631 -0.14030226 0.66900003
0.068732403 -0.14009254 0.66800004
0.069846392 -0.14009254 0.66800004
0.071066618 -0.14030226 0.66900003
0.072182283 -0.14030226 0.66900003
0.073407508 -0.14051197 0.67000002
0.074524835 -0.14051197 0.67000002
0.075642169 -0.14051197 0.67000002
0.076759495 -0.14051197 0.67000002
0.077876829 -0.14051197 0.67000002
-0.065723479 -0.1456362 0.70000005
-0.064556122 -0.1456362 0.70000005
-0.063388765 -0.1456362 0.70000005
-0.062132519 -0.14542815 0.69900006
-0.06096682 -0.14542815 0.69900006
-0.059715573 -0.14522009 0.69800001
-0.058383781 -0.14480399 0.69600004
-0.057140876 -0.14459594 0.69500005
-0.055901304 -0.14438789 0.69400001
-0.05466507 -0.14417984 0.69300002
-0.05343217 -0.14397179 0.69200003
-0.05212706 -0.14355569 0.69000006
-0.050902497 -0.14334762 0.68900001
-0.049609061 -0.14293152 0.68700004
-0.048392836 -0.14272347 0.68600005
-0.047179945 -0.14251542 0.68500006
-0.045970391 -0.14230737 0.68400002
-0.044764172 -0.14209932 0.68300003
-0.043561291 -0.14189127 0.68200004
-0.042423952 -0.14189127 0.68200004
-0.041226074 -0.14168322 0.68100005
-0.040031526 -0.14147516 0.68000001
-0.03884032 -0.14126711 0.67900002
-0.037707977 -0.14126711 0.67900002
-0.036521774 -0.14105906 0.67800003
-0.035338905 -0.14085101 0.67700005
-0.034108836 -0.14043489 0.67500001
-0.032983169 -0.14043489 0.67500001
-0.031810302 -0.14022686 0.67400002
-0.030686302 -0.14022686 0.67400002
-0.02951844 -0.14001881 0.67300004
-0.028353915 -0.13981076 0.67200005
-0.02723325 -0.13981076 0.67200005
-0.026112583 -0.13981076 0.67200005
-0.024954727 -0.13960269 0.671
-0.02383573 -0.13960269 0.671
-0.022682877 -0.13939464 0.67000002
-0.021565547 -0.13939464 0.67000002
-0.020417698 -0.13918659 0.66900003
-0.019302035 -0.13918659 0.66900003
-0.018186372 -0.13918659 0.66900003
-0.017070711 -0.13918659 0.66900003
-0.015955048 -0.13918659 0.66900003
-0.014839386 -0.13918659 0.66900003
-0.013723724 -0.13918659 0.66900003
-0.012608061 -0.13918659 0.66900003
-0.011509577 -0.13939464 0.67000002
-0.010392247 -0.13939464 0.67000002
-0.0092749167 -0.13939464 0.67000002
-0.0081697619 -0.13960269 0.671
-0.0070507643 -0.13960269 0.671
-0.0059317662 -0.13960269 0.671
-0.0048127691 -0.13960269 0.671
-0.0036937715 -0.13960269 0.671
-0.0025786113 -0.13981076 0.67200005
-0.0014579458 -0.13981076 0.67200005
-0.00033728033 -0.13981076 0.67200005
0.00078338507 -0.13981076 0.67200005
0.0019068838 -0.14001881 0.67300004
0.0030292168 -0.14001881 0.67300004
0.0041577187 -0.14022686 0.67400002
0.0052895555 -0.14043489 0.67500001
0.0064247283 -0.14064296 0.67600006
0.0075520645 -0.14064296 0.67600006
0.0086922394 -0.14085101 0.67700005
0.0098357499 -0.14105906 0.67800003
0.010982595 -0.14126711 0.67900002
0.012132777 -0.14147516 0.68000001
0.013286293 -0.14168322 0.68100005
0.014443146 -0.14189127 0.68200004
0.015580487 -0.14189127 0.68200004
0.016742341 -0.14209932 0.68300003
0.017933715 -0.14251542 0.68500006
0.019103907 -0.14272347 0.68600005
0.020277435 -0.14293152 0.68700004
0.021485481 -0.14334762 0.68900001
0.02266735 -0.14355569 0.69000006
0.023852551 -0.14376374 0.69100004
0.025077274 -0.14417984 0.69300002
0.026270814 -0.14438789 0.69400001
0.02746769 -0.14459594 0.69500005
0.028626714 -0.14459594 0.69500005
0.029828591 -0.14480399 0.69600004
0.031033805 -0.14501204 0.69700003
0.03219616 -0.14501204 0.69700003
0.033406377 -0.14522009 0.69800001
0.0345704 -0.14522009 0.69800001
0.035734426 -0.14522009 0.69800001
0.036898453 -0.14522009 0.69800001
0.038007945 -0.14501204 0.69700003
0.039114103 -0.14480399 0.69600004
0.040159058 -0.14438789 0.69400001
0.041137815 -0.14376374 0.69100004
0.042106561 -0.14313957 0.68800002
0.04312817 -0.14272347 0.68600005
0.044143107 -0.14230737 0.68400002
0.045217581 -0.14209932 0.68300003
0.046356589 -0.14209932 0.68300003
0.04742606 -0.14189127 0.68200004
0.048634607 -0.14209932 0.68300003
0.049773622 -0.14209932 0.68300003
0.050987173 -0.14230737 0.68400002
0.052127849 -0.14230737 0.68400002
0.053268526 -0.14230737 0.68400002
0.054409202 -0.14230737 0.68400002
0.055631097 -0.14251542 0.68500006
0.056690555 -0.14230737 0.68400002
0.057915784 -0.14251542 0.68500006
0.058885694 -0.14209932 0.68300003
0.059936821 -0.14189127 0.68200004
0.060895056 -0.14147516 0.68000001
0.06269864 -0.14043489 0.67500001
0.0636352 -0.14001881 0.67300004
0.06568408 -0.13960269 0.671
0.066703521 -0.13939464 0.67000002
0.067719631 -0.13918659 0.66900003
0.068835288 -0.13918659 0.66900003
0.069950953 -0.13918659 0.66900003
0.071066618 -0.13918659 0.66900003
0.072290175 -0.13939464 0.67000002
0.073297948 -0.13918659 0.66900003
0.074524835 -0.13939464 0.67000002
0.075642169 -0.13939464 0.67000002
0.076759495 -0.13939464 0.67000002
0.077876829 -0.13939464 0.67000002
-0.065723479 -0.14446884 0.70000005
-0.064556122 -0.14446884 0.70000005
-0.063298211 -0.14426246 0.69900006
-0.062132519 -0.14426246 0.69900006
-0.060879596 -0.14405607 0.69800001
-0.059630021 -0.14384969 0.69700003
-0.058383781 -0.1436433 0.69600004
-0.057140876 -0.14343692 0.69500005
-0.055901304 -0.14323053 0.69400001
-0.054586187 -0.14281777 0.69200003
-0.053354956 -0.14261138 0.69100004
-0.05212706 -0.142405 0.69000006
-0.050828617 -0.14199223 0.68800002
-0.049609061 -0.14178585 0.68700004
-0.048392836 -0.14157946 0.68600005
-0.047179945 -0.14137308 0.68500006
-0.045970391 -0.14116669 0.68400002
-0.044764172 -0.14096031 0.68300003
-0.043561291 -0.14075392 0.68200004
-0.042423952 -0.14075392 0.68200004
-0.041226074 -0.14054754 0.68100005
-0.040031526 -0.14034115 0.68000001
-0.03884032 -0.14013477 0.67900002
-0.037707977 -0.14013477 0.67900002
-0.036521774 -0.13992839 0.67800003
-0.035338905 -0.139722 0.67700005
-0.03415937 -0.13951562 0.67600006
-0.032983169 -0.13930923 0.67500001
-0.031857498 -0.13930923 0.67500001
-0.030731829 -0.13930923 0.67500001
-0.029562302 -0.13910285 0.67400002
-0.028396109 -0.13889647 0.67300004
-0.027273776 -0.13889647 0.67300004
-0.026112583 -0.13869008 0.67200005
-0.024991918 -0.13869008 0.67200005
-0.02383573 -0.1384837 0.671
-0.022716731 -0.1384837 0.671
-0.021565547 -0.13827732 0.67000002
-0.020448217 -0.13827732 0.67000002
-0.019302035 -0.13807094 0.66900003
-0.018186372 -0.13807094 0.66900003
-0.017070711 -0.13807094 0.66900003
-0.015955048 -0.13807094 0.66900003
-0.014839386 -0.13807094 0.66900003
-0.013723724 -0.13807094 0.66900003
-0.012608061 -0.13807094 0.66900003
-0.011509577 -0.13827732 0.67000002
-0.010392247 -0.13827732 0.67000002
-0.0092749167 -0.13827732 0.67000002
-0.0081697619 -0.1384837 0.671
-0.0070507643 -0.1384837 0.671
-0.0059317662 -0.1384837 0.671
-0.0048199417 -0.13869008 0.67200005
-0.0036992766 -0.13869008 0.67200005
-0.0025786113 -0.13869008 0.67200005
-0.0014579458 -0.13869008 0.67200005
-0.00033728033 -0.13869008 0.67200005
0.00078338507 -0.13869008 0.67200005
0.0019068838 -0.13889647 0.67300004
0.0030337179 -0.13910285 0.67400002
0.0041638874 -0.13930923 0.67500001
0.0052895555 -0.13930923 0.67500001
0.0064247283 -0.13951562 0.67600006
0.0075632362 -0.139722 0.67700005
0.0086922394 -0.139722 0.67700005
0.0098502571 -0.14013477 0.67900002
0.010982595 -0.14013477 0.67900002
0.012132777 -0.14034115 0.68000001
0.013286293 -0.14054754 0.68100005
0.014443146 -0.14075392 0.68200004
0.015603333 -0.14096031 0.68300003
0.016766855 -0.14116669 0.68400002
0.017959895 -0.14157946 0.68600005
0.019131755 -0.14178585 0.68700004
0.02030695 -0.14199223 0.68800002
0.021516668 -0.142405 0.69000006
0.022700202 -0.14261138 0.69100004
0.02388707 -0.14281777 0.69200003
0.025077274 -0.14302415 0.69300002
0.026270814 -0.14323053 0.69400001
0.02746769 -0.14343692 0.69500005
0.028667903 -0.1436433 0.69600004
0.029871449 -0.14384969 0.69700003
0.031033805 -0.14384969 0.69700003
0.032242354 -0.14405607 0.69800001
0.033406377 -0.14405607 0.69800001
0.034619931 -0.14426246 0.69900006
0.035785627 -0.14426246 0.69900006
0.036951318 -0.14426246 0.69900006
0.038062476 -0.14405607 0.69800001
0.039170302 -0.14384969 0.69700003
0.040216926 -0.14343692 0.69500005
0.042228967 -0.142405 0.69000006
0.043191038 -0.14178585 0.68700004
0.044143107 -0.14116669 0.68400002
0.045217581 -0.14096031 0.68300003
0.046356589 -0.14096031 0.68300003
0.0474956 -0.14096031 0.68300003
0.048634607 -0.14096031 0.68300003
0.049773622 -0.14096031 0.68300003
0.05091263 -0.14096031 0.68300003
0.052051641 -0.14096031 0.68300003
0.053190649 -0.14096031 0.68300003
0.054409202 -0.14116669 0.68400002
0.055549879 -0.14116669 0.68400002
0.056690555 -0.14116669 0.68400002
0.057831235 -0.14116669 0.68400002
0.058885694 -0.14096031 0.68300003
0.059936821 -0.14075392 0.68200004
0.062791534 -0.13951562 0.67600006
0.063729756 -0.13910285 0.67400002
0.06568408 -0.1384837 0.671
0.066703521 -0.13827732 0.67000002
0.067820854 -0.13827732 0.67000002
0.068938181 -0.13827732 0.67000002
0.070055515 -0.13827732 0.67000002
0.071172841 -0.13827732 0.67000002
0.072290175 -0.13827732 0.67000002
0.073407508 -0.13827732 0.67000002
0.074524835 -0.13827732 0.67000002
0.07575506 -0.1384837 0.671
0.076874062 -0.1384837 0.671
0.077993058 -0.1384837 0.671
-0.065723479 -0.14330147 0.70000005
-0.064556122 -0.14330147 0.70000005
-0.063298211 -0.14309676 0.69900006
-0.062132519 -0.14309676 0.69900006
-0.060879596 -0.14289203 0.69800001
-0.059630021 -0.14268732 0.69700003
-0.058383781 -0.14248261 0.69600004
-0.057140876 -0.1422779 0.69500005
-0.055901304 -0.14207317 0.69400001
-0.054586187 -0.14166375 0.69200003
-0.053354956 -0.14145903 0.69100004
-0.05212706 -0.14125432 0.69000006
-0.050828617 -0.14084488 0.68800002
-0.049609061 -0.14064017 0.68700004
-0.048392836 -0.14043544 0.68600005
-0.047179945 -0.14023073 0.68500006
-0.045970391 -0.140026 0.68400002
-0.044764172 -0.13982129 0.68300003
-0.043561291 -0.13961658 0.68200004
-0.042423952 -0.13961658 0.68200004
-0.041226074 -0.13941187 0.68100005
-0.040090397 -0.13941187 0.68100005
-0.038897522 -0.13920714 0.68000001
-0.037707977 -0.13900243 0.67900002
-0.036575638 -0.13900243 0.67900002
-0.035391103 -0.13879772 0.67800003
-0.0342099 -0.138593 0.67700005
-0.033032034 -0.13838829 0.67600006
-0.031904697 -0.13838829 0.67600006
-0.030731829 -0.13818356 0.67500001
-0.029606162 -0.13818356 0.67500001
-0.028438302 -0.13797885 0.67400002
-0.027314302 -0.13797885 0.67400002
-0.026151441 -0.13777414 0.67300004
-0.024991918 -0.13756943 0.67200005
-0.023871254 -0.13756943 0.67200005
-0.022716731 -0.1373647 0.671
-0.021597734 -0.1373647 0.671
-0.020448217 -0.13715999 0.67000002
-0.019330887 -0.13715999 0.67000002
-0.018186372 -0.13695526 0.66900003
-0.017070711 -0.13695526 0.66900003
-0.015955048 -0.13695526 0.66900003
-0.014839386 -0.13695526 0.66900003
-0.013723724 -0.13695526 0.66900003
-0.012626906 -0.13715999 0.67000002
-0.011509577 -0.13715999 0.67000002
-0.010407757 -0.1373647 0.671
-0.0092887599 -0.1373647 0.671
-0.0081697619 -0.1373647 0.671
-0.0070507643 -0.1373647 0.671
-0.0059406068 -0.13756943 0.67200005
-0.0048199417 -0.13756943 0.67200005
-0.0036992766 -0.13756943 0.67200005
-0.0025786113 -0.13756943 0.67200005
-0.0014579458 -0.13756943 0.67200005
-0.00033728033 -0.13756943 0.67200005
0.00078455079 -0.13777414 0.67300004
0.0019068838 -0.13777414 0.67300004
0.0030337179 -0.13797885 0.67400002
0.0041638874 -0.13818356 0.67500001
0.0052895555 -0.13818356 0.67500001
0.0064247283 -0.13838829 0.67600006
0.0075632362 -0.138593 0.67700005
0.0087050786 -0.13879772 0.67800003
0.0098502571 -0.13900243 0.67900002
0.010982595 -0.13900243 0.67900002
0.01215062 -0.13941187 0.68100005
0.013305804 -0.13961658 0.68200004
0.014443146 -0.13961658 0.68200004
0.015603333 -0.13982129 0.68300003
0.016791368 -0.14023073 0.68500006
0.017959895 -0.14043544 0.68600005
0.019131755 -0.14064017 0.68700004
0.020336466 -0.14104959 0.68900001
0.021516668 -0.14125432 0.69000006
0.022700202 -0.14145903 0.69100004
0.023921588 -0.14186846 0.69300002
0.02511346 -0.14207317 0.69400001
0.026308671 -0.1422779 0.69500005
0.02746769 -0.1422779 0.69500005
0.028667903 -0.14248261 0.69600004
0.029871449 -0.14268732 0.69700003
0.031078329 -0.14289203 0.69800001
0.032242354 -0.14289203 0.69800001
0.033454239 -0.14309676 0.69900006
0.034619931 -0.14309676 0.69900006
0.03583682 -0.14330147 0.70000005
0.03700418 -0.14330147 0.70000005
0.03811701 -0.14309676 0.69900006
0.041316412 -0.14207317 0.69400001
0.042290166 -0.14145903 0.69100004
0.043253906 -0.14084488 0.68800002
0.044207647 -0.14023073 0.68500006
0.045217581 -0.13982129 0.68300003
0.046356589 -0.13982129 0.68300003
0.04742606 -0.13961658 0.68200004
0.048563402 -0.13961658 0.68200004
0.049773622 -0.13982129 0.68300003
0.05091263 -0.13982129 0.68300003
0.052051641 -0.13982129 0.68300003
0.053190649 -0.13982129 0.68300003
0.05432966 -0.13982129 0.68300003
0.055468667 -0.13982129 0.68300003
0.056607679 -0.13982129 0.68300003
0.057831235 -0.140026 0.68400002
0.058885694 -0.13982129 0.68300003
0.060984612 -0.13941187 0.68100005
0.06193785 -0.13900243 0.67900002
0.06288442 -0.138593 0.67700005
0.063824311 -0.13818356 0.67500001
0.064757533 -0.13777414 0.67300004
0.065781981 -0.13756943 0.67200005
0.066902645 -0.13756943 0.67200005
0.067922078 -0.1373647 0.671
0.068938181 -0.13715999 0.67000002
0.070055515 -0.13715999 0.67000002
0.071172841 -0.13715999 0.67000002
0.072290175 -0.13715999 0.67000002
0.073517069 -0.1373647 0.671
0.074636064 -0.1373647 0.671
0.07575506 -0.1373647 0.671
0.07698863 -0.13756943 0.67200005
0.078109294 -0.13756943 0.67200005
0.079229958 -0.13756943 0.67200005
-0.066890843 -0.14213413 0.70000005
-0.065723479 -0.14213413 0.70000005
-0.064463899 -0.14193107 0.69900006
-0.063298211 -0.14193107 0.69900006
-0.062132519 -0.14193107 0.69900006
-0.060792379 -0.14152497 0.69700003
-0.059630021 -0.14152497 0.69700003
-0.058383781 -0.14132193 0.69600004
-0.057140876 -0.14111888 0.69500005
-0.055901304 -0.14091583 0.69400001
-0.054586187 -0.14050972 0.69200003
-0.053354956 -0.14030668 0.69100004
-0.05212706 -0.14010364 0.69000006
-0.050828617 -0.13969754 0.68800002
-0.049609061 -0.13949449 0.68700004
-0.048392836 -0.13929144 0.68600005
-0.047179945 -0.13908839 0.68500006
-0.045970391 -0.13888533 0.68400002
-0.044764172 -0.13868229 0.68300003
-0.043561291 -0.13847925 0.68200004
-0.042423952 -0.13847925 0.68200004
-0.04128661 -0.13847925 0.68200004
-0.040090397 -0.1382762 0.68100005
-0.038897522 -0.13807315 0.68000001
-0.037707977 -0.1378701 0.67900002
-0.036575638 -0.1378701 0.67900002
-0.035443302 -0.1378701 0.67900002
-0.034260429 -0.13766704 0.67800003
-0.033080898 -0.137464 0.67700005
-0.031904697 -0.13726096 0.67600006
-0.030777359 -0.13726096 0.67600006
-0.029606162 -0.1370579 0.67500001
-0.028480494 -0.1370579 0.67500001
-0.027314302 -0.13685486 0.67400002
-0.026190298 -0.13685486 0.67400002
-0.025029108 -0.13665181 0.67300004
-0.023871254 -0.13644876 0.67200005
-0.022750588 -0.13644876 0.67200005
-0.021597734 -0.1362457 0.671
-0.020478737 -0.1362457 0.671
-0.019330887 -0.13604265 0.67000002
-0.018213557 -0.13604265 0.67000002
-0.017096227 -0.13604265 0.67000002
-0.015978897 -0.13604265 0.67000002
-0.014861567 -0.13604265 0.67000002
-0.013744237 -0.13604265 0.67000002
-0.012626906 -0.13604265 0.67000002
-0.011509577 -0.13604265 0.67000002
-0.010407757 -0.1362457 0.671
-0.0092887599 -0.1362457 0.671
-0.008181938 -0.13644876 0.67200005
-0.0070612724 -0.13644876 0.67200005
-0.0059406068 -0.13644876 0.67200005
-0.0048199417 -0.13644876 0.67200005
-0.0036992766 -0.13644876 0.67200005
-0.0025824483 -0.13665181 0.67300004
-0.0014579458 -0.13644876 0.67200005
-0.00033778223 -0.13665181 0.67300004
0.00078455079 -0.13665181 0.67300004
0.0019097171 -0.13685486 0.67400002
0.0030337179 -0.13685486 0.67400002
0.0041638874 -0.1370579 0.67500001
0.0052973921 -0.13726096 0.67600006
0.0064247283 -0.13726096 0.67600006
0.0075632362 -0.137464 0.67700005
0.0087050786 -0.13766704 0.67800003
0.0098502571 -0.1378701 0.67900002
0.01099877 -0.13807315 0.68000001
0.01215062 -0.1382762 0.68100005
0.013305804 -0.13847925 0.68200004
0.014464323 -0.13868229 0.68300003
0.015626177 -0.13888533 0.68400002
0.016791368 -0.13908839 0.68500006
0.017959895 -0.13929144 0.68600005
0.019159602 -0.13969754 0.68800002
0.020336466 -0.13990058 0.68900001
0.021516668 -0.14010364 0.69000006
0.022733053 -0.14050972 0.69200003
0.023921588 -0.14071278 0.69300002
0.02511346 -0.14091583 0.69400001
0.026308671 -0.14111888 0.69500005
0.02746769 -0.14111888 0.69500005
0.028667903 -0.14132193 0.69600004
0.029871449 -0.14152497 0.69700003
0.031078329 -0.14172801 0.69800001
0.032242354 -0.14172801 0.69800001
0.033454239 -0.14193107 0.69900006
0.034669459 -0.14213413 0.70000005
0.03583682 -0.14213413 0.70000005
0.03700418 -0.14213413 0.70000005
0.038171537 -0.14213413 0.70000005
0.039338898 -0.14213413 0.70000005
0.044207647 -0.13908839 0.68500006
0.045217581 -0.13868229 0.68300003
0.046288718 -0.13847925 0.68200004
0.04742606 -0.13847925 0.68200004
0.048563402 -0.13847925 0.68200004
0.049700748 -0.13847925 0.68200004
0.05083809 -0.13847925 0.68200004
0.051975433 -0.13847925 0.68200004
0.053112771 -0.13847925 0.68200004
0.054250114 -0.13847925 0.68200004
0.055468667 -0.13868229 0.68300003
0.056524798 -0.13847925 0.68200004
0.057746686 -0.13868229 0.68300003
0.058885694 -0.13868229 0.68300003
0.059936821 -0.13847925 0.68200004
0.060984612 -0.1382762 0.68100005
0.06193785 -0.1378701 0.67900002
0.06288442 -0.137464 0.67700005
0.063824311 -0.1370579 0.67500001
0.064853758 -0.13685486 0.67400002
0.065879866 -0.13665181 0.67300004
0.066902645 -0.13644876 0.67200005
0.067922078 -0.1362457 0.671
0.069041073 -0.1362457 0.671
0.070160069 -0.1362457 0.671
0.071279071 -0.1362457 0.671
0.072398074 -0.1362457 0.671
0.073626637 -0.13644876 0.67200005
0.074747302 -0.13644876 0.67200005
0.075867966 -0.13644876 0.67200005
0.07698863 -0.13644876 0.67200005
0.078109294 -0.13644876 0.67200005
0.079347864 -0.13665181 0.67300004
-0.066890843 -0.14096676 0.70000005
-0.065723479 -0.14096676 0.70000005
-0.064463899 -0.14076538 0.69900006
-0.063207649 -0.14056399 0.69800001
-0.062043626 -0.14056399 0.69800001
-0.060792379 -0.14036261 0.69700003
-0.05954447 -0.14016123 0.69600004
-0.058299899 -0.13995986 0.69500005
-0.057140876 -0.13995986 0.69500005
-0.055820756 -0.13955709 0.69300002
-0.054586187 -0.1393557 0.69200003
-0.053277742 -0.13895296 0.69000006
-0.052051511 -0.13875157 0.68900001
-0.050828617 -0.13855018 0.68800002
-0.049609061 -0.1383488 0.68700004
-0.048392836 -0.13814743 0.68600005
-0.047179945 -0.13794605 0.68500006
-0.045970391 -0.13774465 0.68400002
-0.044764172 -0.13754328 0.68300003
-0.043561291 -0.1373419 0.68200004
-0.042423952 -0.1373419 0.68200004
-0.04128661 -0.1373419 0.68200004
-0.040090397 -0.13714053 0.68100005
-0.038897522 -0.13693912 0.68000001
-0.03776351 -0.13693912 0.68000001
-0.036575638 -0.13673775 0.67900002
-0.035443302 -0.13673775 0.67900002
-0.034260429 -0.13653637 0.67800003
-0.033129759 -0.13653637 0.67800003
-0.031951893 -0.136335 0.67700005
-0.030822888 -0.136335 0.67700005
-0.029650025 -0.13613361 0.67600006
-0.028480494 -0.13593222 0.67500001
-0.027354825 -0.13593222 0.67500001
-0.026190298 -0.13573085 0.67400002
-0.025066298 -0.13573085 0.67400002
-0.023906775 -0.13552947 0.67300004
-0.022750588 -0.13532808 0.67200005
-0.021629924 -0.13532808 0.67200005
-0.020478737 -0.1351267 0.671
-0.019359739 -0.1351267 0.671
-0.018213557 -0.13492532 0.67000002
-0.017096227 -0.13492532 0.67000002
-0.015978897 -0.13492532 0.67000002
-0.014861567 -0.13492532 0.67000002
-0.013744237 -0.13492532 0.67000002
-0.012626906 -0.13492532 0.67000002
-0.011509577 -0.13492532 0.67000002
-0.010407757 -0.1351267 0.671
-0.009302604 -0.13532808 0.67200005
-0.008181938 -0.13532808 0.67200005
-0.0070612724 -0.13532808 0.67200005
-0.0059406068 -0.13532808 0.67200005
-0.0048271143 -0.13552947 0.67300004
-0.0037047814 -0.13552947 0.67300004
-0.0025824483 -0.13552947 0.67300004
-0.0014601153 -0.13552947 0.67300004
-0.00033778223 -0.13552947 0.67300004
0.00078571652 -0.13573085 0.67400002
0.0019097171 -0.13573085 0.67400002
0.0030382187 -0.13593222 0.67500001
0.0041638874 -0.13593222 0.67500001
0.0052973921 -0.13613361 0.67600006
0.006434232 -0.136335 0.67700005
0.0075744074 -0.13653637 0.67800003
0.0087179178 -0.13673775 0.67900002
0.0098502571 -0.13673775 0.67900002
0.01099877 -0.13693912 0.68000001
0.01215062 -0.13714053 0.68100005
0.013305804 -0.1373419 0.68200004
0.014464323 -0.13754328 0.68300003
0.015626177 -0.13774465 0.68400002
0.016791368 -0.13794605 0.68500006
0.017959895 -0.13814743 0.68600005
0.019159602 -0.13855018 0.68800002
0.020365983 -0.13895296 0.69000006
0.021516668 -0.13895296 0.69000006
0.022733053 -0.1393557 0.69200003
0.023921588 -0.13955709 0.69300002
0.02511346 -0.13975847 0.69400001
0.026308671 -0.13995986 0.69500005
0.027507212 -0.14016123 0.69600004
0.028667903 -0.14016123 0.69600004
0.029871449 -0.14036261 0.69700003
0.031078329 -0.14056399 0.69800001
0.032242354 -0.14056399 0.69800001
0.033454239 -0.14076538 0.69900006
0.034669459 -0.14096676 0.70000005
0.03583682 -0.14096676 0.70000005
0.03700418 -0.14096676 0.70000005
0.038171537 -0.14096676 0.70000005
0.039338898 -0.14096676 0.70000005
0.040448394 -0.14076538 0.69900006
0.044207647 -0.13794605 0.68500006
0.045151379 -0.1373419 0.68200004
0.046288718 -0.1373419 0.68200004
0.04742606 -0.1373419 0.68200004
0.048563402 -0.1373419 0.68200004
0.049700748 -0.1373419 0.68200004
0.05083809 -0.1373419 0.68200004
0.051975433 -0.1373419 0.68200004
0.053112771 -0.1373419 0.68200004
0.054250114 -0.1373419 0.68200004
0.055387456 -0.1373419 0.68200004
0.056524798 -0.1373419 0.68200004
0.057662137 -0.1373419 0.68200004
0.058799479 -0.1373419 0.68200004
0.059936821 -0.1373419 0.68200004
0.060984612 -0.13714053 0.68100005
0.062029067 -0.13693912 0.68000001
0.063070185 -0.13673775 0.67900002
0.063918866 -0.13613361 0.67600006
0.064949974 -0.13593222 0.67500001
0.065977752 -0.13573085 0.67400002
0.0670022 -0.13552947 0.67300004
0.068023309 -0.13532808 0.67200005
0.069143973 -0.13532808 0.67200005
0.070264637 -0.13532808 0.67200005
0.071385302 -0.13532808 0.67200005
0.072505973 -0.13532808 0.67200005
0.073626637 -0.13532808 0.67200005
0.074747302 -0.13532808 0.67200005
0.075867966 -0.13532808 0.67200005
0.077103198 -0.13552947 0.67300004
0.078225531 -0.13552947 0.67300004
0.079465762 -0.13573085 0.67400002
-0.068155423 -0.13999912 0.70100003
-0.066890843 -0.1397994 0.70000005
-0.065723479 -0.1397994 0.70000005
-0.064463899 -0.1395997 0.69900006
-0.063207649 -0.13939998 0.69800001
-0.062043626 -0.13939998 0.69800001
-0.060792379 -0.13920026 0.69700003
-0.05954447 -0.13900055 0.69600004
-0.058299899 -0.13880084 0.69500005
-0.057140876 -0.13880084 0.69500005
-0.055820756 -0.1384014 0.69300002
-0.054586187 -0.1382017 0.69200003
-0.053277742 -0.13780227 0.69000006
-0.052051511 -0.13760255 0.68900001
-0.050828617 -0.13740285 0.68800002
-0.04953685 -0.13700342 0.68600005
-0.048392836 -0.13700342 0.68600005
-0.047111068 -0.13660398 0.68400002
-0.045903184 -0.13640428 0.68300003
-0.044764172 -0.13640428 0.68300003
-0.043561291 -0.13620457 0.68200004
-0.042423952 -0.13620457 0.68200004
-0.04128661 -0.13620457 0.68200004
-0.040090397 -0.13600485 0.68100005
-0.038954724 -0.13600485 0.68100005
-0.03776351 -0.13580513 0.68000001
-0.036629505 -0.13580513 0.68000001
-0.035443302 -0.13560542 0.67900002
-0.034310963 -0.13560542 0.67900002
-0.033129759 -0.1354057 0.67800003
-0.031999089 -0.1354057 0.67800003
-0.030822888 -0.135206 0.67700005
-0.029650025 -0.13500629 0.67600006
-0.028480494 -0.13480656 0.67500001
-0.027354825 -0.13480656 0.67500001
-0.026229156 -0.13480656 0.67500001
-0.025066298 -0.13460685 0.67400002
-0.023906775 -0.13440715 0.67300004
-0.022784444 -0.13440715 0.67300004
-0.021629924 -0.13420743 0.67200005
-0.020509258 -0.13420743 0.67200005
-0.019359739 -0.13400771 0.671
-0.018240741 -0.13400771 0.671
-0.017096227 -0.133808 0.67000002
-0.015978897 -0.133808 0.67000002
-0.014861567 -0.133808 0.67000002
-0.013744237 -0.133808 0.67000002
-0.012626906 -0.133808 0.67000002
-0.011509577 -0.133808 0.67000002
-0.010407757 -0.13400771 0.671
-0.009302604 -0.13420743 0.67200005
-0.008181938 -0.13420743 0.67200005
-0.0070612724 -0.13420743 0.67200005
-0.0059406068 -0.13420743 0.67200005
-0.0048271143 -0.13440715 0.67300004
-0.0037047814 -0.13440715 0.67300004
-0.0025862856 -0.13460685 0.67400002
-0.0014622848 -0.13460685 0.67400002
-0.00033828412 -0.13460685 0.67400002
0.00078571652 -0.13460685 0.67400002
0.0019125505 -0.13480656 0.67500001
0.0030382187 -0.13480656 0.67500001
0.0041638874 -0.13480656 0.67500001
0.0052973921 -0.13500629 0.67600006
0.006434232 -0.135206 0.67700005
0.0075744074 -0.1354057 0.67800003
0.0087179178 -0.13560542 0.67900002
0.0098502571 -0.13560542 0.67900002
0.01099877 -0.13580513 0.68000001
0.01215062 -0.13600485 0.68100005
0.013305804 -0.13620457 0.68200004
0.014464323 -0.13640428 0.68300003
0.015626177 -0.13660398 0.68400002
0.016791368 -0.1368037 0.68500006
0.017959895 -0.13700342 0.68600005
0.019159602 -0.13740285 0.68800002
0.020336466 -0.13760255 0.68900001
0.021516668 -0.13780227 0.69000006
0.022700202 -0.13800198 0.69100004
0.023921588 -0.1384014 0.69300002
0.02511346 -0.13860112 0.69400001
0.026308671 -0.13880084 0.69500005
0.02746769 -0.13880084 0.69500005
0.028667903 -0.13900055 0.69600004
0.029871449 -0.13920026 0.69700003
0.031078329 -0.13939998 0.69800001
0.032242354 -0.13939998 0.69800001
0.033454239 -0.1395997 0.69900006
0.034669459 -0.1397994 0.70000005
0.035888016 -0.13999912 0.70100003
0.037057042 -0.13999912 0.70100003
0.038226068 -0.13999912 0.70100003
0.039395094 -0.13999912 0.70100003
0.040506259 -0.1397994 0.70000005
0.044272184 -0.13700342 0.68600005
0.045217581 -0.13640428 0.68300003
0.046288718 -0.13620457 0.68200004
0.04742606 -0.13620457 0.68200004
0.048563402 -0.13620457 0.68200004
0.049700748 -0.13620457 0.68200004
0.05083809 -0.13620457 0.68200004
0.051975433 -0.13620457 0.68200004
0.053112771 -0.13620457 0.68200004
0.054250114 -0.13620457 0.68200004
0.055387456 -0.13620457 0.68200004
0.056524798 -0.13620457 0.68200004
0.057662137 -0.13620457 0.68200004
0.058799479 -0.13620457 0.68200004
0.059848938 -0.13600485 0.68100005
0.060984612 -0.13600485 0.68100005
0.062029067 -0.13580513 0.68000001
0.063070185 -0.13560542 0.67900002
0.064013422 -0.135206 0.67700005
0.064949974 -0.13480656 0.67500001
0.066075645 -0.13480656 0.67500001
0.067101754 -0.13460685 0.67400002
0.068124533 -0.13440715 0.67300004
0.069246866 -0.13440715 0.67300004
0.070369199 -0.13440715 0.67300004
0.071491532 -0.13440715 0.67300004
0.072505973 -0.13420743 0.67200005
0.073736198 -0.13440715 0.67300004
0.074858531 -0.13440715 0.67300004
0.075980864 -0.13440715 0.67300004
0.077217765 -0.13460685 0.67400002
0.07834176 -0.13460685 0.67400002
0.07958366 -0.13480656 0.67500001
-0.068252653 -0.13902813 0.70200002
-0.066986397 -0.13883008 0.70100003
-0.065723479 -0.13863204 0.70000005
-0.064556122 -0.13863204 0.70000005
-0.063298211 -0.13843399 0.69900006
-0.062043626 -0.13823594 0.69800001
-0.060792379 -0.13803791 0.69700003
-0.059630021 -0.13803791 0.69700003
-0.058383781 -0.13783985 0.69600004
-0.057140876 -0.13764182 0.69500005
-0.055820756 -0.13724571 0.69300002
-0.054586187 -0.13704768 0.69200003
-0.053277742 -0.13665159 0.69000006
-0.052051511 -0.13645352 0.68900001
-0.050828617 -0.13625549 0.68800002
-0.04953685 -0.1358594 0.68600005
-0.048392836 -0.1358594 0.68600005
-0.047111068 -0.1354633 0.68400002
-0.045903184 -0.13526526 0.68300003
-0.044698633 -0.13506721 0.68200004
-0.043561291 -0.13506721 0.68200004
-0.042423952 -0.13506721 0.68200004
-0.04128661 -0.13506721 0.68200004
-0.040090397 -0.13486917 0.68100005
-0.038954724 -0.13486917 0.68100005
-0.03781905 -0.13486917 0.68100005
-0.036629505 -0.13467112 0.68000001
-0.035495501 -0.13467112 0.68000001
-0.034310963 -0.13447307 0.67900002
-0.033178624 -0.13447307 0.67900002
-0.031999089 -0.13427503 0.67800003
-0.030822888 -0.13407698 0.67700005
-0.029693885 -0.13407698 0.67700005
-0.028522689 -0.13387895 0.67600006
-0.027354825 -0.13368089 0.67500001
-0.026229156 -0.13368089 0.67500001
-0.025066298 -0.13348284 0.67400002
-0.023942297 -0.13348284 0.67400002
-0.022784444 -0.13328481 0.67300004
-0.021629924 -0.13308676 0.67200005
-0.020509258 -0.13308676 0.67200005
-0.019388592 -0.13308676 0.67200005
-0.018240741 -0.1328887 0.671
-0.017121743 -0.1328887 0.671
-0.015978897 -0.13269067 0.67000002
-0.014861567 -0.13269067 0.67000002
-0.013744237 -0.13269067 0.67000002
-0.012626906 -0.13269067 0.67000002
-0.011509577 -0.13269067 0.67000002
-0.010407757 -0.1328887 0.671
-0.0092887599 -0.1328887 0.671
-0.008181938 -0.13308676 0.67200005
-0.0070612724 -0.13308676 0.67200005
-0.0059406068 -0.13308676 0.67200005
-0.0048271143 -0.13328481 0.67300004
-0.0037047814 -0.13328481 0.67300004
-0.0025862856 -0.13348284 0.67400002
-0.0014601153 -0.13328481 0.67300004
-0.00033828412 -0.13348284 0.67400002
0.00078571652 -0.13348284 0.67400002
0.0019097171 -0.13348284 0.67400002
0.0030382187 -0.13368089 0.67500001
0.0041638874 -0.13368089 0.67500001
0.0052895555 -0.13368089 0.67500001
0.0064247283 -0.13387895 0.67600006
0.0075632362 -0.13407698 0.67700005
0.0087050786 -0.13427503 0.67800003
0.0098502571 -0.13447307 0.67900002
0.010982595 -0.13447307 0.67900002
0.01215062 -0.13486917 0.68100005
0.013305804 -0.13506721 0.68200004
0.014443146 -0.13506721 0.68200004
0.015603333 -0.13526526 0.68300003
0.016791368 -0.13566136 0.68500006
0.017959895 -0.1358594 0.68600005
0.019131755 -0.13605745 0.68700004
0.020336466 -0.13645352 0.68900001
0.021516668 -0.13665159 0.69000006
0.022700202 -0.13684963 0.69100004
0.02388707 -0.13704768 0.69200003
0.025077274 -0.13724571 0.69300002
0.026270814 -0.13744377 0.69400001
0.02746769 -0.13764182 0.69500005
0.028667903 -0.13783985 0.69600004
0.029871449 -0.13803791 0.69700003
0.031033805 -0.13803791 0.69700003
0.032242354 -0.13823594 0.69800001
0.033454239 -0.13843399 0.69900006
0.034669459 -0.13863204 0.70000005
0.03583682 -0.13863204 0.70000005
0.037057042 -0.13883008 0.70100003
0.038226068 -0.13883008 0.70100003
0.039395094 -0.13883008 0.70100003
0.040506259 -0.13863204 0.70000005
0.04642446 -0.1354633 0.68400002
0.04742606 -0.13506721 0.68200004
0.048563402 -0.13506721 0.68200004
0.049700748 -0.13506721 0.68200004
0.05083809 -0.13506721 0.68200004
0.051975433 -0.13506721 0.68200004
0.053112771 -0.13506721 0.68200004
0.054250114 -0.13506721 0.68200004
0.055387456 -0.13506721 0.68200004
0.056524798 -0.13506721 0.68200004
0.057662137 -0.13506721 0.68200004
0.058799479 -0.13506721 0.68200004
0.059848938 -0.13486917 0.68100005
0.060984612 -0.13486917 0.68100005
0.062029067 -0.13467112 0.68000001
0.063070185 -0.13447307 0.67900002
0.064013422 -0.13407698 0.67700005
0.065046206 -0.13387895 0.67600006
0.066075645 -0.13368089 0.67500001
0.067201309 -0.13368089 0.67500001
0.068225756 -0.13348284 0.67400002
0.069349758 -0.13348284 0.67400002
0.070369199 -0.13328481 0.67300004
0.071597755 -0.13348284 0.67400002
0.072613865 -0.13328481 0.67300004
0.073845759 -0.13348284 0.67400002
0.074969761 -0.13348284 0.67400002
0.076206662 -0.13368089 0.67500001
0.077332325 -0.13368089 0.67500001
0.078457996 -0.13368089 0.67500001
0.07958366 -0.13368089 0.67500001
0.080828905 -0.13387895 0.67600006
-0.069522239 -0.1380538 0.70300001
-0.068252653 -0.13785742 0.70200002
-0.067081958 -0.13785742 0.70200002
-0.065817371 -0.13766105 0.70100003
-0.064556122 -0.13746467 0.70000005
-0.063298211 -0.1372683 0.69900006
-0.062132519 -0.1372683 0.69900006
-0.060879596 -0.13707191 0.69800001
-0.059630021 -0.13687554 0.69700003
-0.058383781 -0.13667916 0.69600004
-0.057140876 -0.13648279 0.69500005
-0.055901304 -0.13628641 0.69400001
-0.054586187 -0.13589364 0.69200003
-0.053354956 -0.13569728 0.69100004
-0.05212706 -0.13550089 0.69000006
-0.050828617 -0.13510813 0.68800002
-0.049609061 -0.13491176 0.68700004
-0.048392836 -0.13471538 0.68600005
-0.047111068 -0.13432263 0.68400002
-0.045903184 -0.13412625 0.68300003
-0.044698633 -0.13392986 0.68200004
-0.043561291 -0.13392986 0.68200004
-0.042423952 -0.13392986 0.68200004
-0.04128661 -0.13392986 0.68200004
-0.040090397 -0.1337335 0.68100005
-0.038954724 -0.1337335 0.68100005
-0.03776351 -0.13353711 0.68000001
-0.036629505 -0.13353711 0.68000001
-0.035495501 -0.13353711 0.68000001
-0.034310963 -0.13334073 0.67900002
-0.033178624 -0.13334073 0.67900002
-0.031999089 -0.13314435 0.67800003
-0.030868417 -0.13314435 0.67800003
-0.029693885 -0.13294798 0.67700005
-0.028522689 -0.1327516 0.67600006
-0.027354825 -0.13255522 0.67500001
-0.026229156 -0.13255522 0.67500001
-0.025103487 -0.13255522 0.67500001
-0.023942297 -0.13235885 0.67400002
-0.022784444 -0.13216247 0.67300004
-0.02166211 -0.13216247 0.67300004
-0.020509258 -0.13196608 0.67200005
-0.019388592 -0.13196608 0.67200005
-0.018240741 -0.1317697 0.671
-0.017121743 -0.1317697 0.671
-0.015978897 -0.13157333 0.67000002
-0.014861567 -0.13157333 0.67000002
-0.013744237 -0.13157333 0.67000002
-0.012626906 -0.13157333 0.67000002
-0.011526755 -0.1317697 0.671
-0.010407757 -0.1317697 0.671
-0.0092887599 -0.1317697 0.671
-0.008181938 -0.13196608 0.67200005
-0.0070612724 -0.13196608 0.67200005
-0.0059494469 -0.13216247 0.67300004
-0.0048271143 -0.13216247 0.67300004
-0.0037047814 -0.13216247 0.67300004
-0.0025862856 -0.13235885 0.67400002
-0.0014601153 -0.13216247 0.67300004
-0.00033828412 -0.13235885 0.67400002
0.00078571652 -0.13235885 0.67400002
0.0019097171 -0.13235885 0.67400002
0.0030382187 -0.13255522 0.67500001
0.0041638874 -0.13255522 0.67500001
0.0052895555 -0.13255522 0.67500001
0.0064247283 -0.1327516 0.67600006
0.0075632362 -0.13294798 0.67700005
0.0087050786 -0.13314435 0.67800003
0.0098502571 -0.13334073 0.67900002
0.010982595 -0.13334073 0.67900002
0.012132777 -0.13353711 0.68000001
0.013305804 -0.13392986 0.68200004
0.014443146 -0.13392986 0.68200004
0.015603333 -0.13412625 0.68300003
0.016766855 -0.13432263 0.68400002
0.017959895 -0.13471538 0.68600005
0.019131755 -0.13491176 0.68700004
0.02030695 -0.13510813 0.68800002
0.021516668 -0.13550089 0.69000006
0.02266735 -0.13550089 0.69000006
0.02388707 -0.13589364 0.69200003
0.025077274 -0.13609003 0.69300002
0.026270814 -0.13628641 0.69400001
0.02746769 -0.13648279 0.69500005
0.028626714 -0.13648279 0.69500005
0.029828591 -0.13667916 0.69600004
0.031033805 -0.13687554 0.69700003
0.032242354 -0.13707191 0.69800001
0.033454239 -0.1372683 0.69900006
0.034669459 -0.13746467 0.70000005
0.03583682 -0.13746467 0.70000005
0.037057042 -0.13766105 0.70100003
0.038226068 -0.13766105 0.70100003
0.039395094 -0.13766105 0.70100003
0.040564124 -0.13766105 0.70100003
0.047565136 -0.13432263 0.68400002
0.048634607 -0.13412625 0.68300003
0.049700748 -0.13392986 0.68200004
0.05083809 -0.13392986 0.68200004
0.051975433 -0.13392986 0.68200004
0.053112771 -0.13392986 0.68200004
0.054250114 -0.13392986 0.68200004
0.055387456 -0.13392986 0.68200004
0.056524798 -0.13392986 0.68200004
0.057662137 -0.13392986 0.68200004
0.058799479 -0.13392986 0.68200004
0.059936821 -0.13392986 0.68200004
0.060984612 -0.1337335 0.68100005
0.062029067 -0.13353711 0.68000001
0.063070185 -0.13334073 0.67900002
0.064107977 -0.13314435 0.67800003
0.065046206 -0.1327516 0.67600006
0.066075645 -0.13255522 0.67500001
0.067201309 -0.13255522 0.67500001
0.068225756 -0.13235885 0.67400002
0.069349758 -0.13235885 0.67400002
0.070473753 -0.13235885 0.67400002
0.071597755 -0.13235885 0.67400002
0.072721764 -0.13235885 0.67400002
0.073845759 -0.13235885 0.67400002
0.075080991 -0.13255522 0.67500001
0.076206662 -0.13255522 0.67500001
0.077332325 -0.13255522 0.67500001
0.078457996 -0.13255522 0.67500001
0.07958366 -0.13255522 0.67500001
0.080828905 -0.1327516 0.67600006
-0.070895724 -0.13727087 0.70500004
-0.069621138 -0.13707617 0.70400006
-0.068349876 -0.13688144 0.70300001
-0.067081958 -0.13668674 0.70200002
-0.065817371 -0.13649203 0.70100003
-0.064556122 -0.13629733 0.70000005
-0.063388765 -0.13629733 0.70000005
-0.062132519 -0.13610262 0.69900006
-0.060879596 -0.13590789 0.69800001
-0.059630021 -0.13571319 0.69700003
-0.058383781 -0.13551848 0.69600004
-0.057140876 -0.13532378 0.69500005
-0.055901304 -0.13512905 0.69400001
-0.05466507 -0.13493435 0.69300002
-0.053354956 -0.13454492 0.69100004
-0.05212706 -0.13435023 0.69000006
-0.050828617 -0.1339608 0.68800002
-0.049609061 -0.13376608 0.68700004
-0.048392836 -0.13357137 0.68600005
-0.047111068 -0.13318194 0.68400002
-0.045903184 -0.13298725 0.68300003
-0.044698633 -0.13279253 0.68200004
-0.043561291 -0.13279253 0.68200004
-0.042423952 -0.13279253 0.68200004
-0.041226074 -0.13259782 0.68100005
-0.040090397 -0.13259782 0.68100005
-0.038954724 -0.13259782 0.68100005
-0.03776351 -0.13240311 0.68000001
-0.036629505 -0.13240311 0.68000001
-0.035495501 -0.13240311 0.68000001
-0.034310963 -0.13220839 0.67900002
-0.033178624 -0.13220839 0.67900002
-0.031999089 -0.13201369 0.67800003
-0.030868417 -0.13201369 0.67800003
-0.029693885 -0.13181898 0.67700005
-0.028522689 -0.13162428 0.67600006
-0.027395353 -0.13162428 0.67600006
-0.026229156 -0.13142955 0.67500001
-0.025103487 -0.13142955 0.67500001
-0.023942297 -0.13123485 0.67400002
-0.022818297 -0.13123485 0.67400002
-0.02166211 -0.13104014 0.67300004
-0.020509258 -0.13084543 0.67200005
-0.019388592 -0.13084543 0.67200005
-0.018240741 -0.13065071 0.671
-0.017121743 -0.13065071 0.671
-0.016002746 -0.13065071 0.671
-0.014861567 -0.130456 0.67000002
-0.013744237 -0.130456 0.67000002
-0.012626906 -0.130456 0.67000002
-0.011526755 -0.13065071 0.671
-0.010407757 -0.13065071 0.671
-0.009302604 -0.13084543 0.67200005
-0.008181938 -0.13084543 0.67200005
-0.0070612724 -0.13084543 0.67200005
-0.0059494469 -0.13104014 0.67300004
-0.0048271143 -0.13104014 0.67300004
-0.0037047814 -0.13104014 0.67300004
-0.0025862856 -0.13123485 0.67400002
-0.0014622848 -0.13123485 0.67400002
-0.00033828412 -0.13123485 0.67400002
0.00078571652 -0.13123485 0.67400002
0.0019097171 -0.13123485 0.67400002
0.0030382187 -0.13142955 0.67500001
0.0041638874 -0.13142955 0.67500001
0.0052895555 -0.13142955 0.67500001
0.0064247283 -0.13162428 0.67600006
0.0075632362 -0.13181898 0.67700005
0.0087050786 -0.13201369 0.67800003
0.0098502571 -0.13220839 0.67900002
0.010982595 -0.13220839 0.67900002
0.012132777 -0.13240311 0.68000001
0.013305804 -0.13279253 0.68200004
0.014443146 -0.13279253 0.68200004
0.015603333 -0.13298725 0.68300003
0.016766855 -0.13318194 0.68400002
0.017933715 -0.13337667 0.68500006
0.019103907 -0.13357137 0.68600005
0.020277435 -0.13376608 0.68700004
0.021485481 -0.1341555 0.68900001
0.02266735 -0.13435023 0.69000006
0.023852551 -0.13454492 0.69100004
0.025041088 -0.13473964 0.69200003
0.026270814 -0.13512905 0.69400001
0.02746769 -0.13532378 0.69500005
0.028626714 -0.13532378 0.69500005
0.029828591 -0.13551848 0.69600004
0.031033805 -0.13571319 0.69700003
0.03219616 -0.13571319 0.69700003
0.033406377 -0.13590789 0.69800001
0.034619931 -0.13610262 0.69900006
0.03583682 -0.13629733 0.70000005
0.03700418 -0.13629733 0.70000005
0.038226068 -0.13649203 0.70100003
0.039395094 -0.13649203 0.70100003
0.040564124 -0.13649203 0.70100003
0.041673619 -0.13629733 0.70000005
0.043756861 -0.13551848 0.69600004
0.044659402 -0.13473964 0.69200003
0.046560209 -0.13357137 0.68600005
0.04763468 -0.13337667 0.68500006
0.048634607 -0.13298725 0.68300003
0.049773622 -0.13298725 0.68300003
0.05083809 -0.13279253 0.68200004
0.051975433 -0.13279253 0.68200004
0.053112771 -0.13279253 0.68200004
0.054250114 -0.13279253 0.68200004
0.055387456 -0.13279253 0.68200004
0.056524798 -0.13279253 0.68200004
0.057662137 -0.13279253 0.68200004
0.058799479 -0.13279253 0.68200004
0.059936821 -0.13279253 0.68200004
0.060984612 -0.13259782 0.68100005
0.062029067 -0.13240311 0.68000001
0.066173539 -0.13162428 0.67600006
0.067201309 -0.13142955 0.67500001
0.06832698 -0.13142955 0.67500001
0.069452643 -0.13142955 0.67500001
0.070578314 -0.13142955 0.67500001
0.071703985 -0.13142955 0.67500001
0.072829656 -0.13142955 0.67500001
0.07395532 -0.13142955 0.67500001
0.075080991 -0.13142955 0.67500001
0.076206662 -0.13142955 0.67500001
0.0774469 -0.13162428 0.67600006
0.078574233 -0.13162428 0.67600006
0.079701573 -0.13162428 0.67600006
0.080948472 -0.13181898 0.67700005
-0.070895724 -0.13609517 0.70500004
-0.069621138 -0.13590214 0.70400006
-0.068349876 -0.13570908 0.70300001
-0.067177512 -0.13570908 0.70300001
-0.065817371 -0.135323 0.70100003
-0.064556122 -0.13512996 0.70000005
-0.063388765 -0.13512996 0.70000005
-0.062132519 -0.13493691 0.69900006
-0.060879596 -0.13474387 0.69800001
-0.059630021 -0.13455082 0.69700003
-0.058383781 -0.13435778 0.69600004
-0.057140876 -0.13416475 0.69500005
-0.055901304 -0.13397169 0.69400001
-0.05466507 -0.13377865 0.69300002
-0.053354956 -0.13339257 0.69100004
-0.05212706 -0.13319953 0.69000006
-0.050902497 -0.13300648 0.68900001
-0.049609061 -0.13262039 0.68700004
-0.048392836 -0.13242736 0.68600005
-0.047179945 -0.13223432 0.68500006
-0.045970391 -0.13204126 0.68400002
-0.044764172 -0.13184823 0.68300003
-0.043561291 -0.13165519 0.68200004
-0.042423952 -0.13165519 0.68200004
-0.04128661 -0.13165519 0.68200004
-0.040090397 -0.13146214 0.68100005
-0.038954724 -0.13146214 0.68100005
-0.03776351 -0.1312691 0.68000001
-0.036629505 -0.1312691 0.68000001
-0.035495501 -0.1312691 0.68000001
-0.034310963 -0.13107605 0.67900002
-0.033178624 -0.13107605 0.67900002
-0.031999089 -0.13088301 0.67800003
-0.030822888 -0.13068998 0.67700005
-0.029693885 -0.13068998 0.67700005
-0.028522689 -0.13049693 0.67600006
-0.027395353 -0.13049693 0.67600006
-0.026229156 -0.13030389 0.67500001
-0.025103487 -0.13030389 0.67500001
-0.02397782 -0.13030389 0.67500001
-0.022818297 -0.13011084 0.67400002
-0.021694297 -0.13011084 0.67400002
-0.020539777 -0.1299178 0.67300004
-0.019388592 -0.12972476 0.67200005
-0.018267926 -0.12972476 0.67200005
-0.017147262 -0.12972476 0.67200005
-0.016026596 -0.12972476 0.67200005
-0.014883747 -0.12953171 0.671
-0.01376475 -0.12953171 0.671
-0.012645752 -0.12953171 0.671
-0.011543934 -0.12972476 0.67200005
-0.010423268 -0.12972476 0.67200005
-0.009302604 -0.12972476 0.67200005
-0.008181938 -0.12972476 0.67200005
-0.0070717805 -0.1299178 0.67300004
-0.0059494469 -0.1299178 0.67300004
-0.0048342869 -0.13011084 0.67400002
-0.0037102862 -0.13011084 0.67400002
-0.0025862856 -0.13011084 0.67400002
-0.0014622848 -0.13011084 0.67400002
-0.00033828412 -0.13011084 0.67400002
0.00078688224 -0.13030389 0.67500001
0.0019125505 -0.13030389 0.67500001
0.0030382187 -0.13030389 0.67500001
0.0041638874 -0.13030389 0.67500001
0.0052895555 -0.13030389 0.67500001
0.0064247283 -0.13049693 0.67600006
0.0075632362 -0.13068998 0.67700005
0.0087050786 -0.13088301 0.67800003
0.0098502571 -0.13107605 0.67900002
0.010982595 -0.13107605 0.67900002
0.012132777 -0.1312691 0.68000001
0.013286293 -0.13146214 0.68100005
0.014443146 -0.13165519 0.68200004
0.015603333 -0.13184823 0.68300003
0.016766855 -0.13204126 0.68400002
0.017933715 -0.13223432 0.68500006
0.019103907 -0.13242736 0.68600005
0.020277435 -0.13262039 0.68700004
0.021485481 -0.13300648 0.68900001
0.02266735 -0.13319953 0.69000006
0.023852551 -0.13339257 0.69100004
0.025041088 -0.13358562 0.69200003
0.02623296 -0.13377865 0.69300002
0.027428167 -0.13397169 0.69400001
0.028626714 -0.13416475 0.69500005
0.029828591 -0.13435778 0.69600004
0.03098928 -0.13435778 0.69600004
0.03219616 -0.13455082 0.69700003
0.033406377 -0.13474387 0.69800001
0.034619931 -0.13493691 0.69900006
0.03583682 -0.13512996 0.70000005
0.03700418 -0.13512996 0.70000005
0.038171537 -0.13512996 0.70000005
0.039395094 -0.135323 0.70100003
0.040506259 -0.13512996 0.70000005
0.041733153 -0.135323 0.70100003
0.04284098 -0.13512996 0.70000005
0.043756861 -0.13435778 0.69600004
0.044659402 -0.13358562 0.69200003
0.04662808 -0.13262039 0.68700004
0.04770422 -0.13242736 0.68600005
0.048705816 -0.13204126 0.68400002
0.049846496 -0.13204126 0.68400002
0.05091263 -0.13184823 0.68300003
0.051975433 -0.13165519 0.68200004
0.053112771 -0.13165519 0.68200004
0.054250114 -0.13165519 0.68200004
0.055387456 -0.13165519 0.68200004
0.056524798 -0.13165519 0.68200004
0.057662137 -0.13165519 0.68200004
0.058799479 -0.13165519 0.68200004
0.059936821 -0.13165519 0.68200004
0.061074164 -0.13165519 0.68200004
0.066173539 -0.13049693 0.67600006
0.067201309 -0.13030389 0.67500001
0.06832698 -0.13030389 0.67500001
0.069452643 -0.13030389 0.67500001
0.070578314 -0.13030389 0.67500001
0.071703985 -0.13030389 0.67500001
0.072829656 -0.13030389 0.67500001
0.07395532 -0.13030389 0.67500001
0.075080991 -0.13030389 0.67500001
0.07631956 -0.13049693 0.67600006
0.0774469 -0.13049693 0.67600006
0.078574233 -0.13049693 0.67600006
0.079701573 -0.13049693 0.67600006
0.080948472 -0.13068998 0.67700005
-0.072275877 -0.13530223 0.70700002
-0.070996284 -0.13511086 0.70600003
-0.06972003 -0.13491948 0.70500004
-0.068447106 -0.1347281 0.70400006
-0.067177512 -0.13453673 0.70300001
-0.065911263 -0.13434535 0.70200002
-0.064648345 -0.13415398 0.70100003
-0.063388765 -0.1339626 0.70000005
-0.062132519 -0.13377123 0.69900006
-0.060879596 -0.13357985 0.69800001
-0.059630021 -0.13338847 0.69700003
-0.058383781 -0.1331971 0.69600004
-0.057140876 -0.13300572 0.69500005
-0.055981856 -0.13300572 0.69500005
-0.05466507 -0.13262297 0.69300002
-0.05343217 -0.1324316 0.69200003
-0.05212706 -0.13204886 0.69000006
-0.050902497 -0.13185747 0.68900001
-0.049681269 -0.13166609 0.68800002
-0.048392836 -0.13128336 0.68600005
-0.047179945 -0.13109198 0.68500006
-0.045970391 -0.13090059 0.68400002
-0.044764172 -0.13070923 0.68300003
-0.043625165 -0.13070923 0.68300003
-0.042423952 -0.13051786 0.68200004
-0.04128661 -0.13051786 0.68200004
-0.040149268 -0.13051786 0.68200004
-0.038954724 -0.13032648 0.68100005
-0.03781905 -0.13032648 0.68100005
-0.036629505 -0.13013509 0.68000001
-0.035495501 -0.13013509 0.68000001
-0.034310963 -0.12994373 0.67900002
-0.033178624 -0.12994373 0.67900002
