ply
format ascii 1.0
comment PCL generated
element vertex 1340
property float x
property float y
property float z
element camera 0
property float view_px
property float view_py
property float view_pz
property float x_axisx
property float x_axisy
property float x_axisz
property float y_axisx
property float y_axisy
property float y_axisz
property float z_axisx
property float z_axisy
property float z_axisz
property float focal
property float scalex
property float scaley
property float centerx
property float centery
property int viewportx
property int viewporty
property float k1
property float k2
end_header
0.0096326517 -0.17358071 0.66400003
0.010772324 -0.17410353 0.66600001
0.011900827 -0.17436495 0.66700006
0.013032664 -0.17462637 0.66800004
0.014167837 -0.17488778 0.66900003
0.015329189 -0.17541061 0.671
0.016472701 -0.17567204 0.67200005
0.017645726 -0.17619486 0.67400002
0.018797575 -0.17645627 0.67500001
0.019982275 -0.17697912 0.67700005
0.021142462 -0.17724054 0.67800003
0.022305986 -0.17750195 0.67900002
0.023507364 -0.17802478 0.68100005
0.024679223 -0.17828621 0.68200004
0.025816565 -0.17828621 0.68200004
0.026993427 -0.17854762 0.68300003
0.028132439 -0.17854762 0.68300003
0.029314306 -0.17880903 0.68400002
0.030454982 -0.17880903 0.68400002
0.031595659 -0.17880903 0.68400002
0.032736335 -0.17880903 0.68400002
0.033926543 -0.17907046 0.68500006
0.035068888 -0.17907046 0.68500006
0.036211234 -0.17907046 0.68500006
0.037353579 -0.17907046 0.68500006
0.038495924 -0.17907046 0.68500006
0.039638266 -0.17907046 0.68500006
0.040840145 -0.17933187 0.68600005
0.041984159 -0.17933187 0.68600005
0.04312817 -0.17933187 0.68600005
0.044272184 -0.17933187 0.68600005
0.045416195 -0.17933187 0.68600005
0.046560209 -0.17933187 0.68600005
0.04770422 -0.17933187 0.68600005
0.04884823 -0.17933187 0.68600005
0.049992248 -0.17933187 0.68600005
0.051136263 -0.17933187 0.68600005
0.052280273 -0.17933187 0.68600005
0.053502161 -0.17959328 0.68700004
0.054647841 -0.17959328 0.68700004
0.055712309 -0.17933187 0.68600005
0.0569392 -0.17959328 0.68700004
0.058084883 -0.17959328 0.68700004
0.059230562 -0.17959328 0.68700004
0.060464125 -0.17985469 0.68800002
0.06161147 -0.17985469 0.68800002
-0.063080549 -0.17766836 0.68400002
-0.061939873 -0.17766836 0.68400002
-0.060710311 -0.17740861 0.68300003
-0.059571296 -0.17740861 0.68300003
-0.058346737 -0.17714886 0.68200004
-0.057125513 -0.17688912 0.68100005
-0.055907618 -0.17662936 0.68000001
-0.054693062 -0.17636961 0.67900002
-0.053481843 -0.17610987 0.67800003
-0.052196745 -0.17559038 0.67600006
-0.05099386 -0.17533061 0.67500001
-0.049720436 -0.17481112 0.67300004
-0.048525892 -0.17455138 0.67200005
-0.047334682 -0.17429161 0.671
-0.046146806 -0.17403187 0.67000002
-0.045029476 -0.17403187 0.67000002
-0.043846607 -0.17377213 0.66900003
-0.042667072 -0.17351238 0.66800004
-0.041553076 -0.17351238 0.66800004
-0.040378548 -0.17325263 0.66700006
-0.039207347 -0.17299287 0.66600001
-0.038039487 -0.17273313 0.66500002
-0.036874961 -0.17247339 0.66400003
-0.035767637 -0.17247339 0.66400003
-0.034608115 -0.17221363 0.66300005
-0.03350246 -0.17221363 0.66300005
-0.03234794 -0.17195389 0.66200006
-0.031243948 -0.17195389 0.66200006
-0.030139958 -0.17195389 0.66200006
-0.029035971 -0.17195389 0.66200006
-0.027931983 -0.17195389 0.66200006
-0.026787467 -0.17169413 0.66100001
-0.025685143 -0.17169413 0.66100001
-0.024582824 -0.17169413 0.66100001
-0.023480503 -0.17169413 0.66100001
-0.022378182 -0.17169413 0.66100001
-0.021275861 -0.17169413 0.66100001
-0.020173538 -0.17169413 0.66100001
-0.019071218 -0.17169413 0.66100001
-0.017968897 -0.17169413 0.66100001
-0.01684106 -0.17143439 0.66000003
-0.015740406 -0.17143439 0.66000003
-0.014639752 -0.17143439 0.66000003
-0.013539099 -0.17143439 0.66000003
-0.012438445 -0.17143439 0.66000003
-0.011337793 -0.17143439 0.66000003
-0.010237139 -0.17143439 0.66000003
-0.0091364859 -0.17143439 0.66000003
-0.0080358321 -0.17143439 0.66000003
-0.0069351783 -0.17143439 0.66000003
-0.0058345245 -0.17143439 0.66000003
-0.0047338712 -0.17143439 0.66000003
-0.0036332179 -0.17143439 0.66000003
-0.0025325646 -0.17143439 0.66000003
-0.001431911 -0.17143439 0.66000003
-0.00033125747 -0.17143439 0.66000003
0.00076939602 -0.17143439 0.66000003
0.0018728828 -0.17169413 0.66100001
0.0029752038 -0.17169413 0.66100001
0.004083694 -0.17195389 0.66200006
0.0051876828 -0.17195389 0.66200006
0.0063011758 -0.17221363 0.66300005
0.0074180039 -0.17247339 0.66400003
0.0085253278 -0.17247339 0.66400003
0.0096471589 -0.17273313 0.66500002
0.010772324 -0.17299287 0.66600001
0.011900827 -0.17325263 0.66700006
0.013052174 -0.17377213 0.66900003
0.014189014 -0.17403187 0.67000002
0.015329189 -0.17429161 0.671
0.016472701 -0.17455138 0.67200005
0.017645726 -0.17507087 0.67400002
0.018797575 -0.17533061 0.67500001
0.019982275 -0.17585012 0.67700005
0.021142462 -0.17610987 0.67800003
0.022338837 -0.17662936 0.68000001
0.023507364 -0.17688912 0.68100005
0.024679223 -0.17714886 0.68200004
0.025816565 -0.17714886 0.68200004
0.026993427 -0.17740861 0.68300003
0.028173629 -0.17766836 0.68400002
0.029314306 -0.17766836 0.68400002
0.030454982 -0.17766836 0.68400002
0.031641852 -0.17792812 0.68500006
0.032784197 -0.17792812 0.68500006
0.033926543 -0.17792812 0.68500006
0.035068888 -0.17792812 0.68500006
0.036211234 -0.17792812 0.68500006
0.037353579 -0.17792812 0.68500006
0.03855212 -0.17818786 0.68600005
0.039696131 -0.17818786 0.68600005
0.040840145 -0.17818786 0.68600005
0.041984159 -0.17818786 0.68600005
0.04312817 -0.17818786 0.68600005
0.044272184 -0.17818786 0.68600005
0.045416195 -0.17818786 0.68600005
0.046560209 -0.17818786 0.68600005
0.04770422 -0.17818786 0.68600005
0.04884823 -0.17818786 0.68600005
0.049992248 -0.17818786 0.68600005
0.051136263 -0.17818786 0.68600005
0.052280273 -0.17818786 0.68600005
0.053502161 -0.1784476 0.68700004
0.054568298 -0.17818786 0.68600005
0.05579352 -0.1784476 0.68700004
0.0569392 -0.1784476 0.68700004
0.058169428 -0.17870736 0.68800002
0.059316777 -0.17870736 0.68800002
0.060464125 -0.17870736 0.68800002
0.06161147 -0.17870736 0.68800002
0.062850043 -0.1789671 0.68900001
0.063999057 -0.1789671 0.68900001
-0.063080549 -0.17652768 0.68400002
-0.061939873 -0.17652768 0.68400002
-0.060710311 -0.17626961 0.68300003
-0.059484079 -0.17601153 0.68200004
-0.058346737 -0.17601153 0.68200004
-0.057125513 -0.17575344 0.68100005
-0.055907618 -0.17549536 0.68000001
-0.054693062 -0.17523728 0.67900002
-0.053481843 -0.17497919 0.67800003
-0.052196745 -0.17446305 0.67600006
-0.05099386 -0.17420495 0.67500001
-0.049794316 -0.17394687 0.67400002
-0.048525892 -0.17343071 0.67200005
-0.047334682 -0.17317262 0.671
-0.046146806 -0.17291455 0.67000002
-0.045029476 -0.17291455 0.67000002
-0.043846607 -0.17265646 0.66900003
-0.042730946 -0.17265646 0.66900003
-0.041553076 -0.17239839 0.66800004
-0.040378548 -0.17214032 0.66700006
-0.039266221 -0.17214032 0.66700006
-0.038096689 -0.17188221 0.66600001
-0.036930494 -0.17162414 0.66500002
-0.035767637 -0.17136607 0.66400003
-0.034660313 -0.17136607 0.66400003
-0.033552989 -0.17136607 0.66400003
-0.032396801 -0.17110798 0.66300005
-0.031291142 -0.17110798 0.66300005
-0.030139958 -0.1708499 0.66200006
-0.029035971 -0.1708499 0.66200006
-0.027931983 -0.1708499 0.66200006
-0.026827995 -0.1708499 0.66200006
-0.025724003 -0.1708499 0.66200006
-0.024620015 -0.1708499 0.66200006
-0.023516027 -0.1708499 0.66200006
-0.022412037 -0.1708499 0.66200006
-0.02130805 -0.1708499 0.66200006
-0.02020406 -0.1708499 0.66200006
-0.019100072 -0.1708499 0.66200006
-0.017968897 -0.17059182 0.66100001
-0.016866576 -0.17059182 0.66100001
-0.015764255 -0.17059182 0.66100001
-0.014661933 -0.17059182 0.66100001
-0.013559612 -0.17059182 0.66100001
-0.012457291 -0.17059182 0.66100001
-0.011337793 -0.17033373 0.66000003
-0.010237139 -0.17033373 0.66000003
-0.0091364859 -0.17033373 0.66000003
-0.0080358321 -0.17033373 0.66000003
-0.0069351783 -0.17033373 0.66000003
-0.0058345245 -0.17033373 0.66000003
-0.0047338712 -0.17033373 0.66000003
-0.0036387227 -0.17059182 0.66100001
-0.0025364016 -0.17059182 0.66100001
-0.0014340805 -0.17059182 0.66100001
-0.00033175937 -0.17059182 0.66100001
0.00077056175 -0.17059182 0.66100001
0.0018757163 -0.1708499 0.66200006
0.0029797051 -0.1708499 0.66200006
0.004083694 -0.1708499 0.66200006
0.005195519 -0.17110798 0.66300005
0.0063106795 -0.17136607 0.66400003
0.0074180039 -0.17136607 0.66400003
0.008538167 -0.17162414 0.66500002
0.0096616652 -0.17188221 0.66600001
0.010788499 -0.17214032 0.66700006
0.01191867 -0.17239839 0.66800004
0.013052174 -0.17265646 0.66900003
0.014189014 -0.17291455 0.67000002
0.015352035 -0.17343071 0.67200005
0.016497213 -0.1736888 0.67300004
0.017645726 -0.17394687 0.67400002
0.018797575 -0.17420495 0.67500001
0.019982275 -0.17472112 0.67700005
0.021173647 -0.17523728 0.67900002
0.022338837 -0.17549536 0.68000001
0.023507364 -0.17575344 0.68100005
0.024679223 -0.17601153 0.68200004
0.025854418 -0.17626961 0.68300003
0.026993427 -0.17626961 0.68300003
0.028173629 -0.17652768 0.68400002
0.029314306 -0.17652768 0.68400002
0.030499509 -0.17678578 0.68500006
0.031641852 -0.17678578 0.68500006
0.032784197 -0.17678578 0.68500006
0.033976071 -0.17704386 0.68600005
0.035120085 -0.17704386 0.68600005
0.036264095 -0.17704386 0.68600005
0.03740811 -0.17704386 0.68600005
0.03855212 -0.17704386 0.68600005
0.039696131 -0.17704386 0.68600005
0.040840145 -0.17704386 0.68600005
0.041984159 -0.17704386 0.68600005
0.04312817 -0.17704386 0.68600005
0.044336718 -0.17730193 0.68700004
0.045416195 -0.17704386 0.68600005
0.04662808 -0.17730193 0.68700004
0.04770422 -0.17704386 0.68600005
0.048919439 -0.17730193 0.68700004
0.049992248 -0.17704386 0.68600005
0.051136263 -0.17704386 0.68600005
0.052356482 -0.17730193 0.68700004
0.053502161 -0.17730193 0.68700004
0.054647841 -0.17730193 0.68700004
0.05579352 -0.17730193 0.68700004
0.05702208 -0.17756002 0.68800002
0.058084883 -0.17730193 0.68700004
0.059316777 -0.17756002 0.68800002
0.060464125 -0.17756002 0.68800002
0.061701022 -0.17781809 0.68900001
0.062758826 -0.17756002 0.68800002
0.063999057 -0.17781809 0.68900001
0.065242633 -0.17807618 0.69000006
-0.061849318 -0.17513061 0.68300003
-0.060710311 -0.17513061 0.68300003
-0.059484079 -0.17487419 0.68200004
-0.058346737 -0.17487419 0.68200004
-0.057125513 -0.17461778 0.68100005
-0.055907618 -0.17436136 0.68000001
-0.054693062 -0.17410494 0.67900002
-0.053481843 -0.17384854 0.67800003
-0.052273959 -0.17359212 0.67700005
-0.05099386 -0.1730793 0.67500001
-0.049794316 -0.17282288 0.67400002
-0.048598103 -0.17256647 0.67300004
-0.047405228 -0.17231005 0.67200005
-0.046215679 -0.17205364 0.671
-0.045029476 -0.17179722 0.67000002
-0.043912146 -0.17179722 0.67000002
-0.042730946 -0.17154081 0.66900003
-0.041553076 -0.17128441 0.66800004
-0.040378548 -0.17102799 0.66700006
-0.039266221 -0.17102799 0.66700006
-0.038096689 -0.17077157 0.66600001
-0.036986027 -0.17077157 0.66600001
-0.035821501 -0.17051515 0.66500002
-0.034660313 -0.17025875 0.66400003
-0.033552989 -0.17025875 0.66400003
-0.032445665 -0.17025875 0.66400003
-0.031291142 -0.17000233 0.66300005
-0.030185487 -0.17000233 0.66300005
-0.029079832 -0.17000233 0.66300005
-0.027974175 -0.17000233 0.66300005
-0.02686852 -0.17000233 0.66300005
-0.025724003 -0.16974592 0.66200006
-0.024620015 -0.16974592 0.66200006
-0.023516027 -0.16974592 0.66200006
-0.022412037 -0.16974592 0.66200006
-0.02130805 -0.16974592 0.66200006
-0.02020406 -0.16974592 0.66200006
-0.019100072 -0.16974592 0.66200006
-0.017996082 -0.16974592 0.66200006
-0.016892094 -0.16974592 0.66200006
-0.015788106 -0.16974592 0.66200006
-0.014684116 -0.16974592 0.66200006
-0.013559612 -0.1694895 0.66100001
-0.012457291 -0.1694895 0.66100001
-0.011354971 -0.1694895 0.66100001
-0.010252649 -0.1694895 0.66100001
-0.0091503281 -0.1694895 0.66100001
-0.0080480073 -0.1694895 0.66100001
-0.0069456859 -0.1694895 0.66100001
-0.0058433646 -0.1694895 0.66100001
-0.0047410438 -0.1694895 0.66100001
-0.0036387227 -0.1694895 0.66100001
-0.0025364016 -0.1694895 0.66100001
-0.0014362502 -0.16974592 0.66200006
-0.00033226129 -0.16974592 0.66200006
0.00077172753 -0.16974592 0.66200006
0.0018757163 -0.16974592 0.66200006
0.0029842062 -0.17000233 0.66300005
0.0040898626 -0.17000233 0.66300005
0.0052033556 -0.17025875 0.66400003
0.0063106795 -0.17025875 0.66400003
0.0074291755 -0.17051515 0.66500002
0.0085510062 -0.17077157 0.66600001
0.0096761733 -0.17102799 0.66700006
0.010804675 -0.17128441 0.66800004
0.011936512 -0.17154081 0.66900003
0.013071683 -0.17179722 0.67000002
0.014189014 -0.17179722 0.67000002
0.015352035 -0.17231005 0.67200005
0.016497213 -0.17256647 0.67300004
0.017671907 -0.1730793 0.67500001
0.018825425 -0.17333572 0.67600006
0.019982275 -0.17359212 0.67700005
0.021173647 -0.17410494 0.67900002
0.022338837 -0.17436136 0.68000001
0.023507364 -0.17461778 0.68100005
0.024679223 -0.17487419 0.68200004
0.025854418 -0.17513061 0.68300003
0.026993427 -0.17513061 0.68300003
0.028173629 -0.17538701 0.68400002
0.029314306 -0.17538701 0.68400002
0.030454982 -0.17538701 0.68400002
0.031641852 -0.17564344 0.68500006
0.032784197 -0.17564344 0.68500006
0.033926543 -0.17564344 0.68500006
0.035068888 -0.17564344 0.68500006
0.036264095 -0.17589985 0.68600005
0.03740811 -0.17589985 0.68600005
0.03855212 -0.17589985 0.68600005
0.039696131 -0.17589985 0.68600005
0.040840145 -0.17589985 0.68600005
0.041984159 -0.17589985 0.68600005
0.04312817 -0.17589985 0.68600005
0.044336718 -0.17615627 0.68700004
0.045416195 -0.17589985 0.68600005
0.04662808 -0.17615627 0.68700004
0.04777376 -0.17615627 0.68700004
0.048919439 -0.17615627 0.68700004
0.050065123 -0.17615627 0.68700004
0.051210802 -0.17615627 0.68700004
0.052356482 -0.17615627 0.68700004
0.053502161 -0.17615627 0.68700004
0.054647841 -0.17615627 0.68700004
0.05579352 -0.17615627 0.68700004
0.05702208 -0.17641267 0.68800002
0.058169428 -0.17641267 0.68800002
0.059316777 -0.17641267 0.68800002
0.060464125 -0.17641267 0.68800002
0.06161147 -0.17641267 0.68800002
0.062850043 -0.17666908 0.68900001
0.063999057 -0.17666908 0.68900001
0.06514807 -0.17666908 0.68900001
0.066393316 -0.17692551 0.69000006
-0.059484079 -0.17373684 0.68200004
-0.058346737 -0.17373684 0.68200004
-0.057125513 -0.17348209 0.68100005
-0.055907618 -0.17322734 0.68000001
-0.054693062 -0.17297259 0.67900002
-0.053481843 -0.17271785 0.67800003
-0.052273959 -0.1724631 0.67700005
-0.051069409 -0.17220837 0.67600006
-0.049868193 -0.1719536 0.67500001
-0.048598103 -0.17144412 0.67300004
-0.047405228 -0.17118938 0.67200005
-0.046215679 -0.17093462 0.671
-0.045029476 -0.17067988 0.67000002
-0.043912146 -0.17067988 0.67000002
-0.042730946 -0.17042513 0.66900003
-0.041615281 -0.17042513 0.66900003
-0.040439084 -0.1701704 0.66800004
-0.039266221 -0.16991565 0.66700006
-0.038153894 -0.16991565 0.66700006
-0.036986027 -0.1696609 0.66600001
-0.035875369 -0.1696609 0.66600001
-0.034712512 -0.16940615 0.66500002
-0.033552989 -0.16915141 0.66400003
-0.032445665 -0.16915141 0.66400003
-0.031338338 -0.16915141 0.66400003
-0.030231016 -0.16915141 0.66400003
-0.029123692 -0.16915141 0.66400003
-0.028016368 -0.16915141 0.66400003
-0.02686852 -0.16889666 0.66300005
-0.025762862 -0.16889666 0.66300005
-0.024657205 -0.16889666 0.66300005
-0.02355155 -0.16889666 0.66300005
-0.022445893 -0.16889666 0.66300005
-0.021340236 -0.16889666 0.66300005
-0.020234579 -0.16889666 0.66300005
-0.019100072 -0.16864192 0.66200006
-0.017996082 -0.16864192 0.66200006
-0.016892094 -0.16864192 0.66200006
-0.015788106 -0.16864192 0.66200006
-0.014684116 -0.16864192 0.66200006
-0.013580128 -0.16864192 0.66200006
-0.012476138 -0.16864192 0.66200006
-0.01137215 -0.16864192 0.66200006
-0.01026816 -0.16864192 0.66200006
-0.0091641722 -0.16864192 0.66200006
-0.0080480073 -0.16838716 0.66100001
-0.0069456859 -0.16838716 0.66100001
-0.0058522052 -0.16864192 0.66200006
-0.0047482164 -0.16864192 0.66200006
-0.003644228 -0.16864192 0.66200006
-0.0025402391 -0.16864192 0.66200006
-0.0014362502 -0.16864192 0.66200006
-0.00033226129 -0.16864192 0.66200006
0.00077172753 -0.16864192 0.66200006
0.0018785497 -0.16889666 0.66300005
0.0029887073 -0.16915141 0.66400003
0.0040960317 -0.16915141 0.66400003
0.0052033556 -0.16915141 0.66400003
0.0063201836 -0.16940615 0.66500002
0.0074403472 -0.1696609 0.66600001
0.0085638454 -0.16991565 0.66700006
0.0096761733 -0.16991565 0.66700006
0.010804675 -0.1701704 0.66800004
0.011936512 -0.17042513 0.66900003
0.013071683 -0.17067988 0.67000002
0.014210192 -0.17093462 0.671
0.015352035 -0.17118938 0.67200005
0.016497213 -0.17144412 0.67300004
0.017671907 -0.1719536 0.67500001
0.018825425 -0.17220837 0.67600006
0.019982275 -0.1724631 0.67700005
0.021173647 -0.17297259 0.67900002
0.022338837 -0.17322734 0.68000001
0.023507364 -0.17348209 0.68100005
0.024679223 -0.17373684 0.68200004
0.025854418 -0.17399158 0.68300003
0.026993427 -0.17399158 0.68300003
0.028173629 -0.17424633 0.68400002
0.029314306 -0.17424633 0.68400002
0.030454982 -0.17424633 0.68400002
0.031641852 -0.17450108 0.68500006
0.032784197 -0.17450108 0.68500006
0.033926543 -0.17450108 0.68500006
0.035068888 -0.17450108 0.68500006
0.036211234 -0.17450108 0.68500006
0.037353579 -0.17450108 0.68500006
0.03855212 -0.17475583 0.68600005
0.039696131 -0.17475583 0.68600005
0.040840145 -0.17475583 0.68600005
0.041984159 -0.17475583 0.68600005
0.04312817 -0.17475583 0.68600005
0.044336718 -0.17501056 0.68700004
0.045482397 -0.17501056 0.68700004
0.04662808 -0.17501056 0.68700004
0.04777376 -0.17501056 0.68700004
0.048919439 -0.17501056 0.68700004
0.050065123 -0.17501056 0.68700004
0.051210802 -0.17501056 0.68700004
0.052356482 -0.17501056 0.68700004
0.053502161 -0.17501056 0.68700004
0.054647841 -0.17501056 0.68700004
0.05579352 -0.17501056 0.68700004
0.05702208 -0.17526531 0.68800002
0.058169428 -0.17526531 0.68800002
0.059316777 -0.17526531 0.68800002
0.060464125 -0.17526531 0.68800002
0.06161147 -0.17526531 0.68800002
0.062850043 -0.17552005 0.68900001
0.064091951 -0.17577481 0.69000006
0.065242633 -0.17577481 0.69000006
0.066393316 -0.17577481 0.69000006
0.067543998 -0.17577481 0.69000006
-0.059484079 -0.17259949 0.68200004
-0.058346737 -0.17259949 0.68200004
-0.057125513 -0.17234643 0.68100005
-0.055907618 -0.17209333 0.68000001
-0.054693062 -0.17184027 0.67900002
-0.053560723 -0.17184027 0.67900002
-0.052273959 -0.1713341 0.67700005
-0.051069409 -0.17108104 0.67600006
-0.049868193 -0.17082794 0.67500001
-0.048670314 -0.17057487 0.67400002
-0.04747577 -0.17032179 0.67300004
-0.04628456 -0.17006871 0.67200005
-0.045096684 -0.16981563 0.671
-0.043912146 -0.16956255 0.67000002
-0.042794816 -0.16956255 0.67000002
-0.041615281 -0.16930948 0.66900003
-0.040439084 -0.1690564 0.66800004
-0.039325088 -0.1690564 0.66800004
-0.038153894 -0.16880333 0.66700006
-0.037041564 -0.16880333 0.66700006
-0.035875369 -0.16855024 0.66600001
-0.034764711 -0.16855024 0.66600001
-0.033603519 -0.16829716 0.66500002
-0.03249453 -0.16829716 0.66500002
-0.031385534 -0.16829716 0.66500002
-0.030231016 -0.16804409 0.66400003
-0.029123692 -0.16804409 0.66400003
-0.028016368 -0.16804409 0.66400003
-0.026909044 -0.16804409 0.66400003
-0.025801718 -0.16804409 0.66400003
-0.024694394 -0.16804409 0.66400003
-0.02358707 -0.16804409 0.66400003
-0.022445893 -0.16779101 0.66300005
-0.021340236 -0.16779101 0.66300005
-0.020234579 -0.16779101 0.66300005
-0.019128924 -0.16779101 0.66300005
-0.018023266 -0.16779101 0.66300005
-0.016917611 -0.16779101 0.66300005
-0.015788106 -0.16753794 0.66200006
-0.014684116 -0.16753794 0.66200006
-0.013580128 -0.16753794 0.66200006
-0.012476138 -0.16753794 0.66200006
-0.01137215 -0.16753794 0.66200006
-0.01026816 -0.16753794 0.66200006
-0.0091641722 -0.16753794 0.66200006
-0.0080601834 -0.16753794 0.66200006
-0.0069561941 -0.16753794 0.66200006
-0.0058522052 -0.16753794 0.66200006
-0.0047482164 -0.16753794 0.66200006
-0.003644228 -0.16753794 0.66200006
-0.0025402391 -0.16753794 0.66200006
-0.0014384197 -0.16779101 0.66300005
-0.00033276319 -0.16779101 0.66300005
0.00077405904 -0.16804409 0.66400003
0.001881383 -0.16804409 0.66400003
0.0029887073 -0.16804409 0.66400003
0.0041022003 -0.16829716 0.66500002
0.0052190279 -0.16855024 0.66600001
0.0063296873 -0.16855024 0.66600001
0.0074515194 -0.16880333 0.66700006
0.0085638454 -0.16880333 0.66700006
0.0096906796 -0.1690564 0.66800004
0.010820849 -0.16930948 0.66900003
0.011936512 -0.16930948 0.66900003
0.013071683 -0.16956255 0.67000002
0.014210192 -0.16981563 0.671
0.015352035 -0.17006871 0.67200005
0.016497213 -0.17032179 0.67300004
0.017671907 -0.17082794 0.67500001
0.018797575 -0.17082794 0.67500001
0.019982275 -0.1713341 0.67700005
0.021173647 -0.17184027 0.67900002
0.022338837 -0.17209333 0.68000001
0.023507364 -0.17234643 0.68100005
0.024679223 -0.17259949 0.68200004
0.025854418 -0.17285258 0.68300003
0.026993427 -0.17285258 0.68300003
0.028173629 -0.17310566 0.68400002
0.029314306 -0.17310566 0.68400002
0.030454982 -0.17310566 0.68400002
0.031595659 -0.17310566 0.68400002
0.032736335 -0.17310566 0.68400002
0.033877011 -0.17310566 0.68400002
0.035017692 -0.17310566 0.68400002
0.036211234 -0.17335874 0.68500006
0.037353579 -0.17335874 0.68500006
0.038495924 -0.17335874 0.68500006
0.039696131 -0.17361182 0.68600005
0.040840145 -0.17361182 0.68600005
0.041984159 -0.17361182 0.68600005
0.04312817 -0.17361182 0.68600005
0.044336718 -0.17386489 0.68700004
0.045482397 -0.17386489 0.68700004
0.04662808 -0.17386489 0.68700004
0.04777376 -0.17386489 0.68700004
0.048919439 -0.17386489 0.68700004
0.050065123 -0.17386489 0.68700004
0.051210802 -0.17386489 0.68700004
0.052356482 -0.17386489 0.68700004
0.053502161 -0.17386489 0.68700004
0.054647841 -0.17386489 0.68700004
0.055874735 -0.17411797 0.68800002
0.05702208 -0.17411797 0.68800002
0.058169428 -0.17411797 0.68800002
0.059402991 -0.17437105 0.68900001
0.060552005 -0.17437105 0.68900001
0.061701022 -0.17437105 0.68900001
0.062850043 -0.17437105 0.68900001
0.064091951 -0.17462413 0.69000006
0.065242633 -0.17462413 0.69000006
0.066489533 -0.17487721 0.69100004
0.067543998 -0.17462413 0.69000006
0.06889379 -0.17513028 0.69200003
-0.058261186 -0.17121075 0.68100005
-0.057125513 -0.17121075 0.68100005
-0.055907618 -0.17095934 0.68000001
-0.054693062 -0.17070793 0.67900002
-0.053560723 -0.17070793 0.67900002
-0.052273959 -0.17020512 0.67700005
-0.051069409 -0.1699537 0.67600006
-0.049868193 -0.16970228 0.67500001
-0.048670314 -0.16945088 0.67400002
-0.04747577 -0.16919947 0.67300004
-0.04628456 -0.16894805 0.67200005
-0.045163896 -0.16894805 0.67200005
-0.043977685 -0.16869664 0.671
-0.042794816 -0.16844523 0.67000002
-0.041615281 -0.16819382 0.66900003
-0.04049962 -0.16819382 0.66900003
-0.039325088 -0.16794242 0.66800004
-0.038211096 -0.16794242 0.66800004
-0.037041564 -0.16769101 0.66700006
-0.035929237 -0.16769101 0.66700006
-0.034764711 -0.16743958 0.66600001
-0.033654049 -0.16743958 0.66600001
-0.032543391 -0.16743958 0.66600001
-0.031385534 -0.16718818 0.66500002
-0.030276544 -0.16718818 0.66500002
-0.029167552 -0.16718818 0.66500002
-0.028016368 -0.16693677 0.66400003
-0.026909044 -0.16693677 0.66400003
-0.025801718 -0.16693677 0.66400003
-0.024694394 -0.16693677 0.66400003
-0.02358707 -0.16693677 0.66400003
-0.022479748 -0.16693677 0.66400003
-0.021372424 -0.16693677 0.66400003
-0.020265099 -0.16693677 0.66400003
-0.019128924 -0.16668536 0.66300005
-0.018023266 -0.16668536 0.66300005
-0.016917611 -0.16668536 0.66300005
-0.015811954 -0.16668536 0.66300005
-0.014706297 -0.16668536 0.66300005
-0.013600641 -0.16668536 0.66300005
-0.012476138 -0.16643396 0.66200006
-0.01137215 -0.16643396 0.66200006
-0.01026816 -0.16643396 0.66200006
-0.0091641722 -0.16643396 0.66200006
-0.0080601834 -0.16643396 0.66200006
-0.0069561941 -0.16643396 0.66200006
-0.0058522052 -0.16643396 0.66200006
-0.0047553889 -0.16668536 0.66300005
-0.0036497326 -0.16668536 0.66300005
-0.0025440762 -0.16668536 0.66300005
-0.0014405893 -0.16693677 0.66400003
-0.00033326508 -0.16693677 0.66400003
0.00077405904 -0.16693677 0.66400003
0.001881383 -0.16693677 0.66400003
0.0029932081 -0.16718818 0.66500002
0.0041083689 -0.16743958 0.66600001
0.0052190279 -0.16743958 0.66600001
0.0063391919 -0.16769101 0.66700006
0.0074515194 -0.16769101 0.66700006
0.0085766846 -0.16794242 0.66800004
0.0097051868 -0.16819382 0.66900003
0.010820849 -0.16819382 0.66900003
0.011954354 -0.16844523 0.67000002
0.013071683 -0.16844523 0.67000002
0.014210192 -0.16869664 0.671
0.015352035 -0.16894805 0.67200005
0.016497213 -0.16919947 0.67300004
0.017671907 -0.16970228 0.67500001
0.018825425 -0.1699537 0.67600006
0.019982275 -0.17020512 0.67700005
0.021173647 -0.17070793 0.67900002
0.022338837 -0.17095934 0.68000001
0.023507364 -0.17121075 0.68100005
0.024679223 -0.17146216 0.68200004
0.025854418 -0.17171358 0.68300003
0.026993427 -0.17171358 0.68300003
0.028173629 -0.17196497 0.68400002
0.029271448 -0.17171358 0.68300003
0.030454982 -0.17196497 0.68400002
0.031595659 -0.17196497 0.68400002
0.032736335 -0.17196497 0.68400002
0.033877011 -0.17196497 0.68400002
0.035017692 -0.17196497 0.68400002
0.036158368 -0.17196497 0.68400002
0.037353579 -0.1722164 0.68500006
0.038495924 -0.1722164 0.68500006
0.039638266 -0.1722164 0.68500006
0.040840145 -0.17246781 0.68600005
0.041984159 -0.17246781 0.68600005
0.04312817 -0.17246781 0.68600005
0.044272184 -0.17246781 0.68600005
0.045416195 -0.17246781 0.68600005
0.04662808 -0.17271921 0.68700004
0.04777376 -0.17271921 0.68700004
0.048919439 -0.17271921 0.68700004
0.050065123 -0.17271921 0.68700004
0.051210802 -0.17271921 0.68700004
0.052356482 -0.17271921 0.68700004
0.053502161 -0.17271921 0.68700004
0.054727387 -0.17297062 0.68800002
0.055874735 -0.17297062 0.68800002
0.05702208 -0.17297062 0.68800002
0.058253977 -0.17322204 0.68900001
0.059402991 -0.17322204 0.68900001
0.060552005 -0.17322204 0.68900001
0.061790578 -0.17347345 0.69000006
0.062941268 -0.17347345 0.69000006
0.064091951 -0.17347345 0.69000006
0.065242633 -0.17347345 0.69000006
0.066489533 -0.17372486 0.69100004
0.067641884 -0.17372486 0.69100004
0.068794236 -0.17372486 0.69100004
0.070047811 -0.17397627 0.69200003
0.071304716 -0.17422767 0.69300002
-0.058346737 -0.17032482 0.68200004
-0.057125513 -0.17007507 0.68100005
-0.055907618 -0.16982532 0.68000001
-0.054693062 -0.16957559 0.67900002
-0.053560723 -0.16957559 0.67900002
-0.052351173 -0.16932584 0.67800003
-0.051144958 -0.1690761 0.67700005
-0.049942076 -0.16882636 0.67600006
-0.048742525 -0.16857661 0.67500001
-0.047546316 -0.16832687 0.67400002
-0.046353433 -0.16807713 0.67300004
-0.045163896 -0.16782738 0.67200005
-0.043977685 -0.16757764 0.671
-0.042794816 -0.1673279 0.67000002
-0.041677486 -0.1673279 0.67000002
-0.04049962 -0.16707815 0.66900003
-0.039383959 -0.16707815 0.66900003
-0.038211096 -0.16682841 0.66800004
-0.037041564 -0.16657868 0.66700006
-0.035929237 -0.16657868 0.66700006
-0.03481691 -0.16657868 0.66700006
-0.033654049 -0.16632892 0.66600001
-0.032543391 -0.16632892 0.66600001
-0.031432729 -0.16632892 0.66600001
-0.030276544 -0.16607918 0.66500002
-0.029167552 -0.16607918 0.66500002
-0.028058561 -0.16607918 0.66500002
-0.02694957 -0.16607918 0.66500002
-0.025801718 -0.16582943 0.66400003
-0.024694394 -0.16582943 0.66400003
-0.02358707 -0.16582943 0.66400003
-0.022479748 -0.16582943 0.66400003
-0.021372424 -0.16582943 0.66400003
-0.020265099 -0.16582943 0.66400003
-0.019157775 -0.16582943 0.66400003
-0.018050451 -0.16582943 0.66400003
-0.016917611 -0.16557971 0.66300005
-0.015811954 -0.16557971 0.66300005
-0.014706297 -0.16557971 0.66300005
-0.013600641 -0.16557971 0.66300005
-0.012494984 -0.16557971 0.66300005
-0.01137215 -0.16532996 0.66200006
-0.01026816 -0.16532996 0.66200006
-0.0091641722 -0.16532996 0.66200006
-0.0080601834 -0.16532996 0.66200006
-0.0069667022 -0.16557971 0.66300005
-0.0058610453 -0.16557971 0.66300005
-0.0047553889 -0.16557971 0.66300005
-0.0036497326 -0.16557971 0.66300005
-0.0025479135 -0.16582943 0.66400003
-0.0014405893 -0.16582943 0.66400003
-0.00033326508 -0.16582943 0.66400003
0.00077522476 -0.16607918 0.66500002
0.0018842164 -0.16607918 0.66500002
0.0029977092 -0.16632892 0.66600001
0.0041145375 -0.16657868 0.66700006
0.0052268645 -0.16657868 0.66700006
0.0063391919 -0.16657868 0.66700006
0.0074626906 -0.16682841 0.66800004
0.0085766846 -0.16682841 0.66800004
0.0097051868 -0.16707815 0.66900003
0.010837023 -0.1673279 0.67000002
0.011954354 -0.1673279 0.67000002
0.013071683 -0.1673279 0.67000002
0.014210192 -0.16757764 0.671
0.015352035 -0.16782738 0.67200005
0.016497213 -0.16807713 0.67300004
0.017671907 -0.16857661 0.67500001
0.018825425 -0.16882636 0.67600006
0.019982275 -0.1690761 0.67700005
0.021173647 -0.16957559 0.67900002
0.022338837 -0.16982532 0.68000001
0.023507364 -0.17007507 0.68100005
0.024679223 -0.17032482 0.68200004
0.025816565 -0.17032482 0.68200004
0.026993427 -0.17057456 0.68300003
0.028132439 -0.17057456 0.68300003
0.029271448 -0.17057456 0.68300003
0.030454982 -0.1708243 0.68400002
0.031549465 -0.17057456 0.68300003
0.032688476 -0.17057456 0.68300003
0.033877011 -0.1708243 0.68400002
0.035017692 -0.1708243 0.68400002
0.036158368 -0.1708243 0.68400002
0.037299044 -0.1708243 0.68400002
0.038439721 -0.1708243 0.68400002
0.039638266 -0.17107405 0.68500006
0.040780615 -0.17107405 0.68500006
0.041984159 -0.17132379 0.68600005
0.04312817 -0.17132379 0.68600005
0.044272184 -0.17132379 0.68600005
0.045416195 -0.17132379 0.68600005
0.046560209 -0.17132379 0.68600005
0.04770422 -0.17132379 0.68600005
0.04884823 -0.17132379 0.68600005
0.049992248 -0.17132379 0.68600005
0.051136263 -0.17132379 0.68600005
0.052356482 -0.17157353 0.68700004
0.053502161 -0.17157353 0.68700004
0.054647841 -0.17157353 0.68700004
0.055874735 -0.17182328 0.68800002
0.05702208 -0.17182328 0.68800002
0.058169428 -0.17182328 0.68800002
0.059402991 -0.17207301 0.68900001
0.060552005 -0.17207301 0.68900001
0.061790578 -0.17232276 0.69000006
0.062941268 -0.17232276 0.69000006
0.064091951 -0.17232276 0.69000006
0.065337181 -0.17257251 0.69100004
0.066585757 -0.17282225 0.69200003
0.06773977 -0.17282225 0.69200003
0.06889379 -0.17282225 0.69200003
0.070149034 -0.17307198 0.69300002
0.071407609 -0.17332172 0.69400001
0.07256496 -0.17332172 0.69400001
-0.058261186 -0.1689394 0.68100005
-0.057125513 -0.1689394 0.68100005
-0.055907618 -0.16869131 0.68000001
-0.05477361 -0.16869131 0.68000001
-0.053560723 -0.16844323 0.67900002
-0.052351173 -0.16819517 0.67800003
-0.051144958 -0.1679471 0.67700005
-0.049942076 -0.16769902 0.67600006
-0.048742525 -0.16745093 0.67500001
-0.047546316 -0.16720286 0.67400002
-0.046353433 -0.16695479 0.67300004
-0.045163896 -0.16670673 0.67200005
-0.044043228 -0.16670673 0.67200005
-0.04285869 -0.16645864 0.671
-0.041677486 -0.16621056 0.67000002
-0.040560156 -0.16621056 0.67000002
-0.039383959 -0.16596249 0.66900003
-0.038268298 -0.16596249 0.66900003
-0.0370971 -0.16571441 0.66800004
-0.035929237 -0.16546634 0.66700006
-0.03481691 -0.16546634 0.66700006
-0.033704586 -0.16546634 0.66700006
-0.032592259 -0.16546634 0.66700006
-0.031432729 -0.16521825 0.66600001
-0.030322071 -0.16521825 0.66600001
-0.029167552 -0.16497019 0.66500002
-0.028058561 -0.16497019 0.66500002
-0.02694957 -0.16497019 0.66500002
-0.025840577 -0.16497019 0.66500002
-0.024694394 -0.16472211 0.66400003
-0.02358707 -0.16472211 0.66400003
-0.022479748 -0.16472211 0.66400003
-0.021372424 -0.16472211 0.66400003
-0.020265099 -0.16472211 0.66400003
-0.019157775 -0.16472211 0.66400003
-0.018050451 -0.16472211 0.66400003
-0.016917611 -0.16447404 0.66300005
-0.015811954 -0.16447404 0.66300005
-0.014706297 -0.16447404 0.66300005
-0.013600641 -0.16447404 0.66300005
-0.012494984 -0.16447404 0.66300005
-0.011389328 -0.16447404 0.66300005
-0.01026816 -0.16422597 0.66200006
-0.0091780154 -0.16447404 0.66300005
-0.0080723586 -0.16447404 0.66300005
-0.0069667022 -0.16447404 0.66300005
-0.0058610453 -0.16447404 0.66300005
-0.0047553889 -0.16447404 0.66300005
-0.0036552374 -0.16472211 0.66400003
-0.0025479135 -0.16472211 0.66400003
-0.0014405893 -0.16472211 0.66400003
-0.00033376698 -0.16497019 0.66500002
0.00077522476 -0.16497019 0.66500002
0.0018870498 -0.16521825 0.66600001
0.0030022105 -0.16546634 0.66700006
0.0041145375 -0.16546634 0.66700006
0.0052268645 -0.16546634 0.66700006
0.0063486961 -0.16571441 0.66800004
0.0074626906 -0.16571441 0.66800004
0.0085895238 -0.16596249 0.66900003
0.0097051868 -0.16596249 0.66900003
0.010837023 -0.16621056 0.67000002
0.011954354 -0.16621056 0.67000002
0.013091194 -0.16645864 0.671
0.01423137 -0.16670673 0.67200005
0.015352035 -0.16670673 0.67200005
0.016497213 -0.16695479 0.67300004
0.017671907 -0.16745093 0.67500001
0.018825425 -0.16769902 0.67600006
0.019982275 -0.1679471 0.67700005
0.021173647 -0.16844323 0.67900002
0.022305986 -0.16844323 0.67900002
0.023507364 -0.1689394 0.68100005
0.024679223 -0.16918747 0.68200004
0.025854418 -0.16943555 0.68300003
0.026993427 -0.16943555 0.68300003
0.028132439 -0.16943555 0.68300003
0.029271448 -0.16943555 0.68300003
0.030410457 -0.16943555 0.68300003
0.031549465 -0.16943555 0.68300003
0.032688476 -0.16943555 0.68300003
0.033827484 -0.16943555 0.68300003
0.034966495 -0.16943555 0.68300003
0.036105506 -0.16943555 0.68300003
0.037244514 -0.16943555 0.68300003
0.038439721 -0.16968362 0.68400002
0.039580397 -0.16968362 0.68400002
0.040780615 -0.16993171 0.68500006
0.041922957 -0.16993171 0.68500006
0.043065302 -0.16993171 0.68500006
0.044272184 -0.17017977 0.68600005
0.045416195 -0.17017977 0.68600005
0.046560209 -0.17017977 0.68600005
0.04770422 -0.17017977 0.68600005
0.04884823 -0.17017977 0.68600005
0.049992248 -0.17017977 0.68600005
0.051136263 -0.17017977 0.68600005
0.052280273 -0.17017977 0.68600005
0.053502161 -0.17042784 0.68700004
0.054647841 -0.17042784 0.68700004
0.05579352 -0.17042784 0.68700004
0.05702208 -0.17067592 0.68800002
0.058253977 -0.17092399 0.68900001
0.059402991 -0.17092399 0.68900001
0.060639895 -0.17117208 0.69000006
0.061790578 -0.17117208 0.69000006
0.063032486 -0.17142016 0.69100004
0.06418483 -0.17142016 0.69100004
0.065431736 -0.17166822 0.69200003
0.066585757 -0.17166822 0.69200003
0.06773977 -0.17166822 0.69200003
0.068993345 -0.17191629 0.69300002
0.070250258 -0.17216437 0.69400001
0.071407609 -0.17216437 0.69400001
0.07256496 -0.17216437 0.69400001
-0.058261186 -0.16780373 0.68100005
-0.057125513 -0.16780373 0.68100005
-0.055907618 -0.16755731 0.68000001
-0.05477361 -0.16755731 0.68000001
-0.053560723 -0.16731091 0.67900002
-0.052428383 -0.16731091 0.67900002
-0.051220503 -0.1670645 0.67800003
-0.050015952 -0.1668181 0.67700005
-0.04881474 -0.16657169 0.67600006
-0.047616858 -0.16632527 0.67500001
-0.04642231 -0.16607887 0.67400002
-0.0452311 -0.16583246 0.67300004
-0.044043228 -0.16558605 0.67200005
-0.042922564 -0.16558605 0.67200005
-0.041739691 -0.16533963 0.671
-0.040560156 -0.16509323 0.67000002
-0.039442826 -0.16509323 0.67000002
-0.038268298 -0.16484684 0.66900003
-0.0370971 -0.16460043 0.66800004
-0.035983104 -0.16460043 0.66800004
-0.03481691 -0.16435403 0.66700006
-0.033704586 -0.16435403 0.66700006
-0.032592259 -0.16435403 0.66700006
-0.031432729 -0.16410761 0.66600001
-0.030322071 -0.16410761 0.66600001
-0.029167552 -0.1638612 0.66500002
-0.028058561 -0.1638612 0.66500002
-0.02694957 -0.1638612 0.66500002
-0.025840577 -0.1638612 0.66500002
-0.024694394 -0.16361479 0.66400003
-0.02358707 -0.16361479 0.66400003
-0.022479748 -0.16361479 0.66400003
-0.021372424 -0.16361479 0.66400003
-0.020265099 -0.16361479 0.66400003
-0.019157775 -0.16361479 0.66400003
-0.018050451 -0.16361479 0.66400003
-0.016917611 -0.16336839 0.66300005
-0.015811954 -0.16336839 0.66300005
-0.014706297 -0.16336839 0.66300005
-0.013600641 -0.16336839 0.66300005
-0.012494984 -0.16336839 0.66300005
-0.01137215 -0.16312198 0.66200006
-0.01026816 -0.16312198 0.66200006
-0.0091780154 -0.16336839 0.66300005
-0.0080723586 -0.16336839 0.66300005
-0.0069667022 -0.16336839 0.66300005
-0.0058610453 -0.16336839 0.66300005
-0.0047625615 -0.16361479 0.66400003
-0.0036552374 -0.16361479 0.66400003
-0.0025479135 -0.16361479 0.66400003
-0.0014427588 -0.1638612 0.66500002
-0.00033376698 -0.1638612 0.66500002
0.00077639049 -0.16410761 0.66600001
0.0018870498 -0.16410761 0.66600001
0.0030022105 -0.16435403 0.66700006
0.0041145375 -0.16435403 0.66700006
0.0052347011 -0.16460043 0.66800004
0.0063486961 -0.16460043 0.66800004
0.0074738623 -0.16484684 0.66900003
0.0085895238 -0.16484684 0.66900003
0.009719694 -0.16509323 0.67000002
0.010837023 -0.16509323 0.67000002
0.011954354 -0.16509323 0.67000002
0.013091194 -0.16533963 0.671
0.01423137 -0.16558605 0.67200005
0.015352035 -0.16558605 0.67200005
0.016497213 -0.16583246 0.67300004
0.017671907 -0.16632527 0.67500001
0.018825425 -0.16657169 0.67600006
0.019982275 -0.1668181 0.67700005
0.021142462 -0.1670645 0.67800003
0.022305986 -0.16731091 0.67900002
0.023472844 -0.16755731 0.68000001
0.024679223 -0.16805014 0.68200004
0.025816565 -0.16805014 0.68200004
0.026953906 -0.16805014 0.68200004
0.028132439 -0.16829655 0.68300003
0.029271448 -0.16829655 0.68300003
0.030410457 -0.16829655 0.68300003
0.031503275 -0.16805014 0.68200004
0.032640617 -0.16805014 0.68200004
0.033777956 -0.16805014 0.68200004
0.034915302 -0.16805014 0.68200004
0.036052644 -0.16805014 0.68200004
0.037244514 -0.16829655 0.68300003
0.038383525 -0.16829655 0.68300003
0.039522532 -0.16829655 0.68300003
0.040721077 -0.16854294 0.68400002
0.041861754 -0.16854294 0.68400002
0.043065302 -0.16878936 0.68500006
0.044207647 -0.16878936 0.68500006
0.045349993 -0.16878936 0.68500006
0.046492334 -0.16878936 0.68500006
0.04763468 -0.16878936 0.68500006
0.04884823 -0.16903576 0.68600005
0.049992248 -0.16903576 0.68600005
0.051136263 -0.16903576 0.68600005
0.052280273 -0.16903576 0.68600005
0.053502161 -0.16928217 0.68700004
0.054647841 -0.16928217 0.68700004
0.055874735 -0.16952857 0.68800002
0.05702208 -0.16952857 0.68800002
0.058253977 -0.16977498 0.68900001
0.059489213 -0.1700214 0.69000006
0.060639895 -0.1700214 0.69000006
0.061880127 -0.17026781 0.69100004
0.063032486 -0.17026781 0.69100004
0.064277716 -0.17051421 0.69200003
0.065431736 -0.17051421 0.69200003
0.066681974 -0.17076062 0.69300002
0.067837663 -0.17076062 0.69300002
0.0690929 -0.17100702 0.69400001
0.070250258 -0.17100702 0.69400001
0.071510509 -0.17125344 0.69500005
0.072669528 -0.17125344 0.69500005
0.073828548 -0.17125344 0.69500005
-0.059484079 -0.16691279 0.68200004
-0.058261186 -0.16666806 0.68100005
-0.057125513 -0.16666806 0.68100005
-0.055907618 -0.16642331 0.68000001
-0.05477361 -0.16642331 0.68000001
-0.053639606 -0.16642331 0.68000001
-0.052428383 -0.16617857 0.67900002
-0.051220503 -0.16593383 0.67800003
-0.050015952 -0.16568908 0.67700005
-0.04881474 -0.16544434 0.67600006
-0.047616858 -0.16519959 0.67500001
-0.046491183 -0.16519959 0.67500001
-0.045298308 -0.16495486 0.67400002
-0.044108771 -0.16471012 0.67300004
-0.042922564 -0.16446538 0.67200005
-0.041739691 -0.16422063 0.671
-0.040560156 -0.16397589 0.67000002
-0.039442826 -0.16397589 0.67000002
-0.038268298 -0.16373116 0.66900003
-0.037152633 -0.16373116 0.66900003
-0.035983104 -0.16348642 0.66800004
-0.034869108 -0.16348642 0.66800004
-0.033704586 -0.16324168 0.66700006
-0.032592259 -0.16324168 0.66700006
-0.031479929 -0.16324168 0.66700006
-0.030322071 -0.16299693 0.66600001
-0.029211413 -0.16299693 0.66600001
-0.028058561 -0.1627522 0.66500002
-0.02694957 -0.1627522 0.66500002
-0.025840577 -0.1627522 0.66500002
-0.024731584 -0.1627522 0.66500002
-0.02358707 -0.16250746 0.66400003
-0.022479748 -0.16250746 0.66400003
-0.021372424 -0.16250746 0.66400003
-0.020265099 -0.16250746 0.66400003
-0.019157775 -0.16250746 0.66400003
-0.018050451 -0.16250746 0.66400003
-0.016943127 -0.16250746 0.66400003
-0.015811954 -0.16226272 0.66300005
-0.014706297 -0.16226272 0.66300005
-0.013600641 -0.16226272 0.66300005
-0.012494984 -0.16226272 0.66300005
-0.01137215 -0.16201799 0.66200006
-0.01026816 -0.16201799 0.66200006
-0.0091780154 -0.16226272 0.66300005
-0.0080723586 -0.16226272 0.66300005
-0.0069667022 -0.16226272 0.66300005
-0.0058610453 -0.16226272 0.66300005
-0.0047625615 -0.16250746 0.66400003
-0.0036552374 -0.16250746 0.66400003
-0.0025479135 -0.16250746 0.66400003
-0.0014427588 -0.1627522 0.66500002
-0.00033426887 -0.16299693 0.66600001
0.00077639049 -0.16299693 0.66600001
0.0018898833 -0.16324168 0.66700006
0.0030022105 -0.16324168 0.66700006
0.0041207066 -0.16348642 0.66800004
0.0052347011 -0.16348642 0.66800004
0.0063581998 -0.16373116 0.66900003
0.0074738623 -0.16373116 0.66900003
0.0086023631 -0.16397589 0.67000002
0.009719694 -0.16397589 0.67000002
0.010837023 -0.16397589 0.67000002
0.011972196 -0.16422063 0.671
0.013091194 -0.16422063 0.671
0.01423137 -0.16446538 0.67200005
0.015352035 -0.16446538 0.67200005
0.016497213 -0.16471012 0.67300004
0.017671907 -0.16519959 0.67500001
0.018797575 -0.16519959 0.67500001
0.019982275 -0.16568908 0.67700005
0.021173647 -0.16617857 0.67900002
0.022305986 -0.16617857 0.67900002
0.023472844 -0.16642331 0.68000001
0.024643037 -0.16666806 0.68100005
0.025816565 -0.16691279 0.68200004
0.026953906 -0.16691279 0.68200004
0.028132439 -0.16715753 0.68300003
0.029228592 -0.16691279 0.68200004
0.030365933 -0.16691279 0.68200004
0.031503275 -0.16691279 0.68200004
0.032640617 -0.16691279 0.68200004
0.033777956 -0.16691279 0.68200004
0.034915302 -0.16691279 0.68200004
0.036052644 -0.16691279 0.68200004
0.037189983 -0.16691279 0.68200004
0.038327325 -0.16691279 0.68200004
0.039464667 -0.16691279 0.68200004
0.04060201 -0.16691279 0.68200004
0.041800555 -0.16715753 0.68300003
0.042876694 -0.16691279 0.68200004
0.044078574 -0.16715753 0.68300003
0.045217581 -0.16715753 0.68300003
0.046356589 -0.16715753 0.68300003
0.047565136 -0.16740227 0.68400002
0.048705816 -0.16740227 0.68400002
0.049919374 -0.16764702 0.68500006
0.05106172 -0.16764702 0.68500006
0.052280273 -0.16789176 0.68600005
0.053424284 -0.16789176 0.68600005
0.054647841 -0.16813649 0.68700004
0.055874735 -0.16838123 0.68800002
0.05702208 -0.16838123 0.68800002
0.058253977 -0.16862597 0.68900001
0.059489213 -0.16887072 0.69000006
0.060639895 -0.16887072 0.69000006
0.061880127 -0.16911545 0.69100004
0.063123703 -0.16936019 0.69200003
0.064277716 -0.16936019 0.69200003
0.065526292 -0.16960493 0.69300002
0.066778198 -0.16984966 0.69400001
0.067935549 -0.16984966 0.69400001
0.069192462 -0.17009442 0.69500005
0.070351489 -0.17009442 0.69500005
0.071510509 -0.17009442 0.69500005
0.072669528 -0.17009442 0.69500005
0.073934779 -0.17033915 0.69600004
-0.059484079 -0.16577545 0.68200004
-0.058346737 -0.16577545 0.68200004
-0.057209395 -0.16577545 0.68200004
-0.055989839 -0.16553238 0.68100005
-0.054854162 -0.16553238 0.68100005
-0.053639606 -0.1652893 0.68000001
-0.052428383 -0.16504623 0.67900002
-0.051296048 -0.16504623 0.67900002
-0.050089829 -0.16480316 0.67800003
-0.048886951 -0.16456009 0.67700005
-0.047687404 -0.16431703 0.67600006
-0.046491183 -0.16407394 0.67500001
-0.045298308 -0.16383086 0.67400002
-0.044108771 -0.16358779 0.67300004
-0.042922564 -0.16334473 0.67200005
-0.0418019 -0.16334473 0.67200005
-0.040620696 -0.16310164 0.671
-0.039442826 -0.16285858 0.67000002
-0.0383255 -0.16285858 0.67000002
-0.037152633 -0.16261551 0.66900003
-0.035983104 -0.16237244 0.66800004
-0.034869108 -0.16237244 0.66800004
-0.033704586 -0.16212937 0.66700006
-0.032592259 -0.16212937 0.66700006
-0.031479929 -0.16212937 0.66700006
-0.030322071 -0.16188629 0.66600001
-0.029211413 -0.16188629 0.66600001
-0.028058561 -0.16164321 0.66500002
-0.02694957 -0.16164321 0.66500002
-0.025840577 -0.16164321 0.66500002
-0.024731584 -0.16164321 0.66500002
-0.02358707 -0.16140014 0.66400003
-0.022479748 -0.16140014 0.66400003
-0.021372424 -0.16140014 0.66400003
-0.020265099 -0.16140014 0.66400003
-0.019157775 -0.16140014 0.66400003
-0.018050451 -0.16140014 0.66400003
-0.016943127 -0.16140014 0.66400003
-0.015811954 -0.16115707 0.66300005
-0.014706297 -0.16115707 0.66300005
-0.013600641 -0.16115707 0.66300005
-0.012494984 -0.16115707 0.66300005
-0.011389328 -0.16115707 0.66300005
-0.01026816 -0.160914 0.66200006
-0.0091780154 -0.16115707 0.66300005
-0.0080723586 -0.16115707 0.66300005
-0.0069667022 -0.16115707 0.66300005
-0.0058698854 -0.16140014 0.66400003
-0.0047625615 -0.16140014 0.66400003
-0.0036552374 -0.16140014 0.66400003
-0.0025517505 -0.16164321 0.66500002
-0.0014427588 -0.16164321 0.66500002
-0.00033426887 -0.16188629 0.66600001
0.00077755633 -0.16212937 0.66700006
0.0018898833 -0.16212937 0.66700006
0.0030022105 -0.16212937 0.66700006
0.0041207066 -0.16237244 0.66800004
0.0052347011 -0.16237244 0.66800004
0.0063581998 -0.16261551 0.66900003
0.0074738623 -0.16261551 0.66900003
0.0086023631 -0.16285858 0.67000002
0.009719694 -0.16285858 0.67000002
0.010837023 -0.16285858 0.67000002
0.011972196 -0.16310164 0.671
0.013110704 -0.16334473 0.67200005
0.01423137 -0.16334473 0.67200005
0.01537488 -0.16358779 0.67300004
0.016521726 -0.16383086 0.67400002
0.017671907 -0.16407394 0.67500001
0.018825425 -0.16431703 0.67600006
0.019982275 -0.16456009 0.67700005
0.021142462 -0.16480316 0.67800003
0.022305986 -0.16504623 0.67900002
0.023472844 -0.1652893 0.68000001
0.024643037 -0.16553238 0.68100005
0.025816565 -0.16577545 0.68200004
0.026953906 -0.16577545 0.68200004
0.02809125 -0.16577545 0.68200004
0.029228592 -0.16577545 0.68200004
0.030321408 -0.16553238 0.68100005
0.031457081 -0.16553238 0.68100005
0.032544896 -0.1652893 0.68000001
0.0336789 -0.1652893 0.68000001
0.034812909 -0.1652893 0.68000001
0.035946917 -0.1652893 0.68000001
0.037080921 -0.1652893 0.68000001
0.038271129 -0.16553238 0.68100005
0.039406803 -0.16553238 0.68100005
0.04054248 -0.16553238 0.68100005
0.041678153 -0.16553238 0.68100005
0.042813826 -0.16553238 0.68100005
0.0439495 -0.16553238 0.68100005
0.045151379 -0.16577545 0.68200004
0.046288718 -0.16577545 0.68200004
0.04742606 -0.16577545 0.68200004
0.048563402 -0.16577545 0.68200004
0.049773622 -0.16601852 0.68300003
0.050987173 -0.16626158 0.68400002
0.052204065 -0.16650468 0.68500006
0.053346407 -0.16650468 0.68500006
0.054568298 -0.16674775 0.68600005
0.05579352 -0.16699082 0.68700004
0.05702208 -0.16723388 0.68800002
0.058253977 -0.16747695 0.68900001
0.059489213 -0.16772003 0.69000006
0.060727775 -0.1679631 0.69100004
0.061969679 -0.16820617 0.69200003
0.06321492 -0.16844924 0.69300002
0.064370602 -0.16844924 0.69300002
0.065620847 -0.16869231 0.69400001
0.066778198 -0.16869231 0.69400001
0.068033442 -0.1689354 0.69500005
0.069192462 -0.1689354 0.69500005
0.070351489 -0.1689354 0.69500005
0.071613401 -0.16917847 0.69600004
0.07277409 -0.16917847 0.69600004
0.074041001 -0.16942154 0.69700003
0.075203367 -0.16942154 0.69700003
-0.059484079 -0.1646381 0.68200004
-0.058346737 -0.1646381 0.68200004
-0.057209395 -0.1646381 0.68200004
-0.055989839 -0.1643967 0.68100005
-0.05477361 -0.16415529 0.68000001
-0.053639606 -0.16415529 0.68000001
-0.052428383 -0.16391389 0.67900002
-0.051296048 -0.16391389 0.67900002
-0.050163709 -0.16391389 0.67900002
-0.048959158 -0.16367248 0.67800003
-0.047757946 -0.16343108 0.67700005
-0.046560064 -0.16318968 0.67600006
-0.045365516 -0.16294827 0.67500001
-0.04417431 -0.16270687 0.67400002
-0.042986438 -0.16246547 0.67300004
-0.0418019 -0.16222405 0.67200005
-0.040620696 -0.16198264 0.671
-0.039442826 -0.16174124 0.67000002
-0.0383255 -0.16174124 0.67000002
-0.037152633 -0.16149984 0.66900003
-0.036036972 -0.16149984 0.66900003
-0.034869108 -0.16125844 0.66800004
-0.033704586 -0.16101703 0.66700006
-0.032592259 -0.16101703 0.66700006
-0.031479929 -0.16101703 0.66700006
-0.030322071 -0.16077562 0.66600001
-0.029211413 -0.16077562 0.66600001
-0.028058561 -0.16053422 0.66500002
-0.02694957 -0.16053422 0.66500002
-0.025840577 -0.16053422 0.66500002
-0.024731584 -0.16053422 0.66500002
-0.02358707 -0.16029282 0.66400003
-0.022479748 -0.16029282 0.66400003
-0.021372424 -0.16029282 0.66400003
-0.020265099 -0.16029282 0.66400003
-0.019157775 -0.16029282 0.66400003
