ply
format ascii 1.0
comment PCL generated
element vertex 1265
property float x
property float y
property float z
element camera 0
property float view_px
property float view_py
property float view_pz
property float x_axisx
property float x_axisy
property float x_axisz
property float y_axisx
property float y_axisy
property float y_axisz
property float z_axisx
property float z_axisy
property float z_axisz
property float focal
property float scalex
property float scaley
property float centerx
property float centery
property int viewportx
property int viewporty
property float k1
property float k2
end_header
-0.021699525 -0.010383106 0.71100003
-0.020513821 -0.010383106 0.71100003
-0.019328117 -0.010383106 0.71100003
-0.018142413 -0.010383106 0.71100003
-0.016956711 -0.010383106 0.71100003
-0.015771005 -0.010383106 0.71100003
-0.014585302 -0.010383106 0.71100003
-0.013399597 -0.010383106 0.71100003
-0.012231072 -0.010397709 0.71200001
-0.0110437 -0.010397709 0.71200001
-0.0098701734 -0.010412313 0.71300006
-0.0086933095 -0.010426916 0.71400005
-0.0075026019 -0.010426916 0.71400005
-0.006320735 -0.01044152 0.71500003
-0.0051355329 -0.010456123 0.71600002
-0.0039414908 -0.010456123 0.71600002
-0.0027512859 -0.010470727 0.71700001
-0.001555576 -0.010470727 0.71700001
-0.00035986604 -0.010470727 0.71700001
0.00083700963 -0.010485331 0.71800005
0.0020343871 -0.010485331 0.71800005
0.0032362659 -0.010499934 0.71900004
0.0044353111 -0.010499934 0.71900004
0.0056421924 -0.010514538 0.72000003
0.0068429057 -0.010514538 0.72000003
0.0080547901 -0.010529141 0.72100002
0.0092700105 -0.010543745 0.72200006
0.010488565 -0.010558348 0.72300005
0.011710455 -0.010572951 0.72400004
0.01291784 -0.010572951 0.72400004
0.014144733 -0.010587555 0.72500002
0.015374961 -0.010602158 0.72600001
0.016608527 -0.010616763 0.72700006
0.017845426 -0.010631366 0.72800004
0.019085661 -0.010645969 0.72900003
0.02032923 -0.010660573 0.73000002
0.021576134 -0.010675176 0.73100001
0.022826377 -0.01068978 0.73200005
0.024079952 -0.010704383 0.73300004
0.025371382 -0.01073359 0.73500001
0.026669484 -0.010762798 0.73700005
0.027974254 -0.010792004 0.73900002
0.029246172 -0.010806608 0.74000001
0.030521432 -0.010821212 0.74100006
0.03180002 -0.010835815 0.74200004
0.033081949 -0.010850418 0.74300003
0.034367207 -0.010865021 0.74400002
0.035655808 -0.010879626 0.74500006
0.036898211 -0.010879626 0.74500006
0.03819181 -0.01089423 0.74600005
-0.093674839 -0.0097795157 0.75600004
-0.092291839 -0.0097665796 0.75500005
-0.090912186 -0.0097536435 0.75400001
-0.089654773 -0.0097536435 0.75400001
-0.088280119 -0.0097407075 0.75300002
-0.08690881 -0.0097277723 0.75200003
-0.085426927 -0.0097019011 0.75000006
-0.083951712 -0.009676029 0.74800003
-0.082483172 -0.0096501568 0.74600005
-0.081021301 -0.0096242847 0.74400002
-0.079673335 -0.0096113496 0.74300003
-0.078223132 -0.0095854783 0.74100006
-0.076675706 -0.0095466701 0.73800004
-0.075342752 -0.0095337341 0.73700005
-0.073812 -0.0094949268 0.73400003
-0.072489053 -0.0094819907 0.73300004
-0.071072198 -0.0094561186 0.73100001
-0.069757588 -0.0094431825 0.73000002
-0.068446308 -0.0094302474 0.72900003
-0.067138366 -0.0094173113 0.72800004
-0.065924317 -0.0094173113 0.72800004
-0.064621374 -0.0094043761 0.72700006
-0.063408978 -0.0094043761 0.72700006
-0.062111039 -0.0093914391 0.72600001
-0.060900319 -0.0093914391 0.72600001
-0.059689604 -0.0093914391 0.72600001
-0.058398336 -0.009378504 0.72500002
-0.057189286 -0.009378504 0.72500002
-0.055903021 -0.0093655679 0.72400004
-0.05469564 -0.0093655679 0.72400004
-0.053414378 -0.0093526319 0.72300005
-0.052136451 -0.0093396967 0.72200006
-0.050932404 -0.0093396967 0.72200006
-0.049659472 -0.0093267597 0.72100002
-0.048389886 -0.0093138246 0.72000003
-0.047123633 -0.0093008885 0.71900004
-0.045860715 -0.0092879534 0.71800005
-0.04466334 -0.0092879534 0.71800005
-0.043405421 -0.0092750164 0.71700001
-0.042150844 -0.0092620803 0.71600002
-0.040956803 -0.0092620803 0.71600002
-0.039707225 -0.0092491452 0.71500003
-0.038460981 -0.0092362091 0.71400005
-0.037270278 -0.0092362091 0.71400005
-0.036079571 -0.0092362091 0.71400005
-0.034888864 -0.0092362091 0.71400005
-0.033698153 -0.0092362091 0.71400005
-0.032461919 -0.009223274 0.71300006
-0.031272881 -0.009223274 0.71300006
-0.030083843 -0.009223274 0.71300006
-0.028894803 -0.009223274 0.71300006
-0.027705763 -0.009223274 0.71300006
-0.026479531 -0.009210337 0.71200001
-0.02529216 -0.009210337 0.71200001
-0.024104789 -0.009210337 0.71200001
-0.022917418 -0.009210337 0.71200001
-0.021730045 -0.009210337 0.71200001
-0.020513821 -0.0091974018 0.71100003
-0.019328117 -0.0091974018 0.71100003
-0.01816793 -0.009210337 0.71200001
-0.016980559 -0.009210337 0.71200001
-0.015793188 -0.009210337 0.71200001
-0.014605816 -0.009210337 0.71200001
-0.013437291 -0.009223274 0.71300006
-0.012248252 -0.009223274 0.71300006
-0.011059212 -0.009223274 0.71300006
-0.0098840166 -0.0092362091 0.71400005
-0.0087054847 -0.0092491452 0.71500003
-0.0075131096 -0.0092491452 0.71500003
-0.0063295751 -0.0092620803 0.71600002
-0.0051355329 -0.0092620803 0.71600002
-0.0039469958 -0.0092750164 0.71700001
-0.0027512859 -0.0092750164 0.71700001
-0.0015577456 -0.0092879534 0.71800005
-0.00036036797 -0.0092879534 0.71800005
0.00083817536 -0.0093008885 0.71900004
0.0020372206 -0.0093008885 0.71900004
0.0032362659 -0.0093008885 0.71900004
0.0044414797 -0.0093138246 0.72000003
0.0056421924 -0.0093138246 0.72000003
0.0068524093 -0.0093267597 0.72100002
0.0080547901 -0.0093267597 0.72100002
0.0092700105 -0.0093396967 0.72200006
0.010488565 -0.0093526319 0.72300005
0.011710455 -0.0093655679 0.72400004
0.012935681 -0.009378504 0.72500002
0.014164242 -0.0093914391 0.72600001
0.015396141 -0.0094043761 0.72700006
0.016608527 -0.0094043761 0.72700006
0.017845426 -0.0094173113 0.72800004
0.01911184 -0.0094431825 0.73000002
0.020357078 -0.0094561186 0.73100001
0.021605652 -0.0094690546 0.73200005
0.02285756 -0.0094819907 0.73300004
0.024112804 -0.0094949268 0.73400003
0.025405902 -0.0095207989 0.73600006
0.026705669 -0.0095466701 0.73800004
0.028012108 -0.0095725413 0.74000001
0.029285695 -0.0095854783 0.74100006
0.030562621 -0.0095984135 0.74200004
0.03184288 -0.0096113496 0.74300003
0.033170998 -0.0096372217 0.74500006
0.034413401 -0.0096372217 0.74500006
0.035703667 -0.0096501568 0.74600005
0.036947738 -0.0096501568 0.74600005
0.038243007 -0.0096630929 0.74700004
-0.093674839 -0.0085187666 0.75600004
-0.092414081 -0.0085187666 0.75600004
-0.091032758 -0.0085074985 0.75500005
-0.089654773 -0.0084962305 0.75400001
-0.088397354 -0.0084962305 0.75400001
-0.087024376 -0.0084849624 0.75300002
-0.085540831 -0.0084624263 0.75100005
-0.084063947 -0.0084398892 0.74900001
-0.082593739 -0.008417353 0.74700004
-0.081130207 -0.0083948169 0.74500006
-0.079673335 -0.0083722798 0.74300003
-0.078223132 -0.0083497437 0.74100006
-0.076779604 -0.0083272075 0.73900002
-0.075342752 -0.0083046714 0.73700005
-0.073912561 -0.0082821343 0.73500001
-0.072489053 -0.0082595982 0.73300004
-0.071169436 -0.0082483301 0.73200005
-0.069853142 -0.0082370611 0.73100001
-0.068540201 -0.008225793 0.73000002
-0.06723059 -0.0082145249 0.72900003
-0.065924317 -0.0082032569 0.72800004
-0.064710259 -0.0082032569 0.72800004
-0.063408978 -0.0081919888 0.72700006
-0.062196597 -0.0081919888 0.72700006
-0.060984209 -0.0081919888 0.72700006
-0.059689604 -0.0081807207 0.72600001
-0.058478884 -0.0081807207 0.72600001
-0.057189286 -0.0081694527 0.72500002
-0.055980235 -0.0081694527 0.72500002
-0.05469564 -0.0081581846 0.72400004
-0.053488255 -0.0081581846 0.72400004
-0.052208662 -0.0081469165 0.72300005
-0.050932404 -0.0081356484 0.72200006
-0.049659472 -0.0081243794 0.72100002
-0.048389886 -0.0081131114 0.72000003
-0.047189172 -0.0081131114 0.72000003
-0.045924589 -0.0081018433 0.71900004
-0.04466334 -0.0080905752 0.71800005
-0.043465961 -0.0080905752 0.71800005
-0.042209711 -0.0080793062 0.71700001
-0.040956803 -0.0080680382 0.71600002
-0.039762758 -0.0080680382 0.71600002
-0.038514849 -0.0080567701 0.71500003
-0.037322477 -0.0080567701 0.71500003
-0.0361301 -0.0080567701 0.71500003
-0.034937728 -0.0080567701 0.71500003
-0.033698153 -0.008045502 0.71400005
-0.032507449 -0.008045502 0.71400005
-0.031316742 -0.008045502 0.71400005
-0.030083843 -0.0080342339 0.71300006
-0.028894803 -0.0080342339 0.71300006
-0.027705763 -0.0080342339 0.71300006
-0.026516723 -0.0080342339 0.71300006
-0.02529216 -0.0080229659 0.71200001
-0.024104789 -0.0080229659 0.71200001
-0.022917418 -0.0080229659 0.71200001
-0.021730045 -0.0080229659 0.71200001
-0.020542674 -0.0080229659 0.71200001
-0.019355301 -0.0080229659 0.71200001
-0.018193448 -0.0080342339 0.71300006
-0.01700441 -0.0080342339 0.71300006
-0.01581537 -0.0080342339 0.71300006
-0.014626331 -0.0080342339 0.71300006
-0.013456136 -0.008045502 0.71400005
-0.01226543 -0.008045502 0.71400005
-0.011074723 -0.008045502 0.71400005
-0.0098978588 -0.0080567701 0.71500003
-0.0087054847 -0.0080567701 0.71500003
-0.0075236172 -0.0080680382 0.71600002
-0.0063295751 -0.0080680382 0.71600002
-0.0051427055 -0.0080793062 0.71700001
-0.0039469958 -0.0080793062 0.71700001
-0.0027551232 -0.0080905752 0.71800005
-0.0015599151 -0.0081018433 0.71900004
-0.00036086986 -0.0081018433 0.71900004
0.00083817536 -0.0081018433 0.71900004
0.002040054 -0.0081131114 0.72000003
0.0032407667 -0.0081131114 0.72000003
0.0044414797 -0.0081131114 0.72000003
0.0056500286 -0.0081243794 0.72100002
0.0068524093 -0.0081243794 0.72100002
0.0080659622 -0.0081356484 0.72200006
0.0092828497 -0.0081469165 0.72300005
0.010503072 -0.0081581846 0.72400004
0.01172663 -0.0081694527 0.72500002
0.012953524 -0.0081807207 0.72600001
0.014164242 -0.0081807207 0.72600001
0.015396141 -0.0081919888 0.72700006
0.01663137 -0.0082032569 0.72800004
0.017869938 -0.0082145249 0.72900003
0.01911184 -0.008225793 0.73000002
0.020357078 -0.0082370611 0.73100001
0.021635167 -0.0082595982 0.73300004
0.022888742 -0.0082708662 0.73400003
0.024145655 -0.0082821343 0.73500001
0.025474939 -0.0083159395 0.73800004
0.026741855 -0.0083272075 0.73900002
0.028049963 -0.0083497437 0.74100006
0.029325217 -0.0083610117 0.74200004
0.030603811 -0.0083722798 0.74300003
0.031885736 -0.0083835479 0.74400002
0.033215523 -0.008406085 0.74600005
0.034459595 -0.008406085 0.74600005
0.035751525 -0.008417353 0.74700004
0.036997262 -0.008417353 0.74700004
0.0382942 -0.0084286211 0.74800003
-0.093798742 -0.0072676195 0.75700003
-0.092414081 -0.0072580189 0.75600004
-0.091032758 -0.0072484184 0.75500005
-0.089773685 -0.0072484184 0.75500005
-0.088397354 -0.0072388174 0.75400001
-0.087024376 -0.0072292173 0.75300002
-0.085654728 -0.0072196168 0.75200003
-0.084176183 -0.0072004157 0.75000006
-0.082704306 -0.0071812142 0.74800003
-0.081239104 -0.0071620136 0.74600005
-0.079780564 -0.007142812 0.74400002
-0.078328699 -0.0071236114 0.74200004
-0.076883495 -0.0071044099 0.74000001
-0.075444974 -0.0070852088 0.73800004
-0.074113689 -0.0070756087 0.73700005
-0.072587945 -0.0070468066 0.73400003
-0.071266659 -0.0070372061 0.73300004
-0.069948711 -0.007027606 0.73200005
-0.068634085 -0.007018005 0.73100001
-0.067322813 -0.0070084045 0.73000002
-0.066014871 -0.0069988039 0.72900003
-0.064710259 -0.0069892034 0.72800004
-0.063496202 -0.0069892034 0.72800004
-0.062196597 -0.0069796029 0.72700006
-0.060984209 -0.0069796029 0.72700006
-0.059771825 -0.0069796029 0.72700006
-0.058478884 -0.0069700019 0.72600001
-0.057268165 -0.0069700019 0.72600001
-0.055980235 -0.0069604018 0.72500002
-0.054771185 -0.0069604018 0.72500002
-0.053488255 -0.0069508012 0.72400004
-0.052208662 -0.0069412007 0.72300005
-0.051002946 -0.0069412007 0.72300005
-0.049728353 -0.0069316002 0.72200006
-0.048457094 -0.0069219992 0.72100002
-0.047189172 -0.0069123991 0.72000003
-0.045988459 -0.0069123991 0.72000003
-0.044725545 -0.0069027985 0.71900004
-0.043465961 -0.006893198 0.71800005
-0.042268585 -0.006893198 0.71800005
-0.041014004 -0.006883597 0.71700001
-0.039762758 -0.0068739965 0.71600002
-0.038568716 -0.0068739965 0.71600002
-0.037374675 -0.0068739965 0.71600002
-0.03618063 -0.0068739965 0.71600002
-0.034937728 -0.0068643964 0.71500003
-0.033745348 -0.0068643964 0.71500003
-0.032507449 -0.0068547959 0.71400005
-0.031316742 -0.0068547959 0.71400005
-0.030126035 -0.0068547959 0.71400005
-0.028935328 -0.0068547959 0.71400005
-0.027744619 -0.0068547959 0.71400005
-0.026553912 -0.0068547959 0.71400005
-0.025327684 -0.0068451953 0.71300006
-0.024138644 -0.0068451953 0.71300006
-0.022949606 -0.0068451953 0.71300006
-0.021760566 -0.0068451953 0.71300006
-0.020571528 -0.0068451953 0.71300006
-0.019382488 -0.0068451953 0.71300006
-0.018218964 -0.0068547959 0.71400005
-0.017028259 -0.0068547959 0.71400005
-0.01583755 -0.0068547959 0.71400005
-0.014646844 -0.0068547959 0.71400005
-0.013474982 -0.0068643964 0.71500003
-0.012282608 -0.0068643964 0.71500003
-0.011090233 -0.0068643964 0.71500003
-0.009911702 -0.0068739965 0.71600002
-0.0087176599 -0.0068739965 0.71600002
-0.0075341254 -0.006883597 0.71700001
-0.0063384152 -0.006883597 0.71700001
-0.0051498781 -0.006893198 0.71800005
-0.0039525009 -0.006893198 0.71800005
-0.0027589605 -0.0069027985 0.71900004
-0.0015599151 -0.0069027985 0.71900004
-0.00036137179 -0.0069123991 0.72000003
0.00083934108 -0.0069123991 0.72000003
0.002040054 -0.0069123991 0.72000003
0.0032407667 -0.0069123991 0.72000003
0.0044476483 -0.0069219992 0.72100002
0.0056578657 -0.0069316002 0.72200006
0.0068619139 -0.0069316002 0.72200006
0.0080771334 -0.0069412007 0.72300005
0.009295688 -0.0069508012 0.72400004
0.010517579 -0.0069604018 0.72500002
0.011742804 -0.0069700019 0.72600001
0.012953524 -0.0069700019 0.72600001
0.014183753 -0.0069796029 0.72700006
0.015417318 -0.0069892034 0.72800004
0.016654216 -0.0069988039 0.72900003
0.017894451 -0.0070084045 0.73000002
0.019138021 -0.007018005 0.73100001
0.020412775 -0.0070372061 0.73300004
0.021664683 -0.0070468066 0.73400003
0.022919927 -0.0070564072 0.73500001
0.024211358 -0.0070756087 0.73700005
0.025509458 -0.0070948093 0.73900002
0.026778042 -0.0071044099 0.74000001
0.028087817 -0.0071236114 0.74200004
0.029364739 -0.0071332115 0.74300003
0.030645 -0.007142812 0.74400002
0.031971451 -0.0071620136 0.74600005
0.033260047 -0.0071716141 0.74700004
0.034551978 -0.0071812142 0.74800003
0.035847243 -0.0071908147 0.74900001
0.037096318 -0.0071908147 0.74900001
0.038396593 -0.0072004157 0.75000006
-0.092536323 -0.0060052029 0.75700003
-0.091153331 -0.0059972703 0.75600004
-0.089773685 -0.0059893373 0.75500005
-0.088514604 -0.0059893373 0.75500005
-0.087139942 -0.0059814043 0.75400001
-0.085654728 -0.0059655388 0.75200003
-0.084288418 -0.0059576058 0.75100005
-0.082814872 -0.0059417398 0.74900001
-0.081348002 -0.0059258742 0.74700004
-0.0798878 -0.0059100087 0.74500006
-0.078434259 -0.0058941427 0.74300003
-0.076987401 -0.0058782771 0.74100006
-0.075547203 -0.0058624106 0.73900002
-0.07421425 -0.0058544781 0.73800004
-0.072686836 -0.0058306791 0.73500001
-0.071363881 -0.0058227465 0.73400003
-0.070044264 -0.0058148135 0.73300004
-0.068634085 -0.0057989475 0.73100001
-0.067322813 -0.005791015 0.73000002
-0.066014871 -0.005783082 0.72900003
-0.064799145 -0.005783082 0.72900003
-0.063496202 -0.005775149 0.72800004
-0.062282149 -0.005775149 0.72800004
-0.061068092 -0.005775149 0.72800004
-0.059771825 -0.0057672164 0.72700006
-0.058559436 -0.0057672164 0.72700006
-0.057268165 -0.005759283 0.72600001
-0.056057449 -0.005759283 0.72600001
-0.054771185 -0.0057513504 0.72500002
-0.053562135 -0.0057513504 0.72500002
-0.052280873 -0.0057434174 0.72400004
-0.051002946 -0.0057354849 0.72300005
-0.049728353 -0.0057275519 0.72200006
-0.048524305 -0.0057275519 0.72200006
-0.047254711 -0.0057196189 0.72100002
-0.045988459 -0.0057116859 0.72000003
-0.04478775 -0.0057116859 0.72000003
-0.0435265 -0.0057037529 0.71900004
-0.042268585 -0.0056958203 0.71800005
-0.041071206 -0.0056958203 0.71800005
-0.039818291 -0.0056878868 0.71700001
-0.03862258 -0.0056878868 0.71700001
-0.03742687 -0.0056878868 0.71700001
-0.03618063 -0.0056799543 0.71600002
-0.034986589 -0.0056799543 0.71600002
-0.033745348 -0.0056720213 0.71500003
-0.032552976 -0.0056720213 0.71500003
-0.0313606 -0.0056720213 0.71500003
-0.030168228 -0.0056720213 0.71500003
-0.028975854 -0.0056720213 0.71500003
-0.027783478 -0.0056720213 0.71500003
-0.026553912 -0.0056640888 0.71400005
-0.025363207 -0.0056640888 0.71400005
-0.0241725 -0.0056640888 0.71400005
-0.022981793 -0.0056640888 0.71400005
-0.021791086 -0.0056640888 0.71400005
-0.020600379 -0.0056640888 0.71400005
-0.019409671 -0.0056640888 0.71400005
-0.018244481 -0.0056720213 0.71500003
-0.017052107 -0.0056720213 0.71500003
-0.015859732 -0.0056720213 0.71500003
-0.014667357 -0.0056720213 0.71500003
-0.013474982 -0.0056720213 0.71500003
-0.012299786 -0.0056799543 0.71600002
-0.011105744 -0.0056799543 0.71600002
-0.0099255452 -0.0056878868 0.71700001
-0.008729835 -0.0056878868 0.71700001
-0.0075341254 -0.0056878868 0.71700001
-0.0063472558 -0.0056958203 0.71800005
-0.0051498781 -0.0056958203 0.71800005
-0.0039580055 -0.0057037529 0.71900004
-0.0027589605 -0.0057037529 0.71900004
-0.0015620848 -0.0057116859 0.72000003
-0.00036137179 -0.0057116859 0.72000003
0.00083934108 -0.0057116859 0.72000003
0.002040054 -0.0057116859 0.72000003
0.0032452678 -0.0057196189 0.72100002
0.0044538174 -0.0057275519 0.72200006
0.0056578657 -0.0057275519 0.72200006
0.0068714176 -0.0057354849 0.72300005
0.0080883056 -0.0057434174 0.72400004
0.009295688 -0.0057434174 0.72400004
0.010517579 -0.0057513504 0.72500002
0.011742804 -0.005759283 0.72600001
0.012971367 -0.0057672164 0.72700006
0.014203263 -0.005775149 0.72800004
0.015438495 -0.005783082 0.72900003
0.016677061 -0.005791015 0.73000002
0.017918963 -0.0057989475 0.73100001
0.019190382 -0.0058148135 0.73300004
0.020440623 -0.0058227465 0.73400003
0.021694198 -0.0058306791 0.73500001
0.022982294 -0.0058465451 0.73700005
0.024277059 -0.0058624106 0.73900002
0.025543977 -0.0058703437 0.74000001
0.026850415 -0.0058862097 0.74200004
0.02812567 -0.0058941427 0.74300003
0.029443784 -0.0059100087 0.74500006
0.030727379 -0.0059179412 0.74600005
0.032014307 -0.0059258742 0.74700004
0.033304572 -0.0059338068 0.74800003
0.034644365 -0.0059496732 0.75000006
0.035942964 -0.0059576058 0.75100005
0.037195377 -0.0059576058 0.75100005
0.038498983 -0.0059655388 0.75200003
-0.092536323 -0.0047427868 0.75700003
-0.091153331 -0.0047365217 0.75600004
-0.089892589 -0.0047365217 0.75600004
-0.088397354 -0.0047239908 0.75400001
-0.087139942 -0.0047239908 0.75400001
-0.085654728 -0.0047114603 0.75200003
-0.084288418 -0.0047051953 0.75100005
-0.082925446 -0.0046989303 0.75000006
-0.0814569 -0.0046863994 0.74800003
-0.079995029 -0.0046738693 0.74600005
-0.078539819 -0.0046613384 0.74400002
-0.077091292 -0.0046488084 0.74200004
-0.075649433 -0.0046362774 0.74000001
-0.07431481 -0.0046300124 0.73900002
-0.072884627 -0.004617482 0.73700005
-0.071461104 -0.0046049515 0.73500001
-0.070139825 -0.004598686 0.73400003
-0.068727985 -0.004586156 0.73200005
-0.067415029 -0.0045798905 0.73100001
-0.066105425 -0.004573625 0.73000002
-0.06488803 -0.004573625 0.73000002
-0.063583419 -0.00456736 0.72900003
-0.062282149 -0.004561095 0.72800004
-0.061068092 -0.004561095 0.72800004
-0.059771825 -0.0045548296 0.72700006
-0.058559436 -0.0045548296 0.72700006
-0.057347052 -0.0045548296 0.72700006
-0.056057449 -0.0045485641 0.72600001
-0.05484673 -0.0045485641 0.72600001
-0.053562135 -0.0045422991 0.72500002
-0.052280873 -0.0045360336 0.72400004
-0.051073488 -0.0045360336 0.72400004
-0.049797226 -0.0045297686 0.72300005
-0.048524305 -0.0045235036 0.72200006
-0.047254711 -0.0045172381 0.72100002
-0.045988459 -0.0045109726 0.72000003
-0.04478775 -0.0045109726 0.72000003
-0.043587036 -0.0045109726 0.72000003
-0.042327452 -0.0045047076 0.71900004
-0.041128408 -0.0045047076 0.71900004
-0.039873827 -0.0044984426 0.71800005
-0.038676452 -0.0044984426 0.71800005
-0.03742687 -0.0044921772 0.71700001
-0.036231164 -0.0044921772 0.71700001
-0.035035454 -0.0044921772 0.71700001
-0.033792544 -0.0044859117 0.71600002
-0.032598503 -0.0044859117 0.71600002
-0.031404462 -0.0044859117 0.71600002
-0.03021042 -0.0044859117 0.71600002
-0.029016379 -0.0044859117 0.71600002
-0.027822334 -0.0044859117 0.71600002
-0.026628293 -0.0044859117 0.71600002
-0.025398729 -0.0044796467 0.71500003
-0.024206355 -0.0044796467 0.71500003
-0.023013981 -0.0044796467 0.71500003
-0.021821605 -0.0044796467 0.71500003
-0.020629231 -0.0044796467 0.71500003
-0.01946404 -0.0044859117 0.71600002
-0.018269997 -0.0044859117 0.71600002
-0.017075956 -0.0044859117 0.71600002
-0.015881913 -0.0044859117 0.71600002
-0.014687872 -0.0044859117 0.71600002
-0.013493828 -0.0044859117 0.71600002
-0.012316965 -0.0044921772 0.71700001
-0.011121254 -0.0044921772 0.71700001
-0.0099255452 -0.0044921772 0.71700001
-0.0087420112 -0.0044984426 0.71800005
-0.0075446335 -0.0044984426 0.71800005
-0.0063560959 -0.0045047076 0.71900004
-0.0051570507 -0.0045047076 0.71900004
-0.0039580055 -0.0045047076 0.71900004
-0.0027627975 -0.0045109726 0.72000003
-0.0015620848 -0.0045109726 0.72000003
-0.00036137179 -0.0045109726 0.72000003
0.00084050687 -0.0045172381 0.72100002
0.0020428873 -0.0045172381 0.72100002
0.0032497691 -0.0045235036 0.72200006
0.0044538174 -0.0045235036 0.72200006
0.0056657018 -0.0045297686 0.72300005
0.0068809218 -0.0045360336 0.72400004
0.0080883056 -0.0045360336 0.72400004
0.0093085272 -0.0045422991 0.72500002
0.010532086 -0.0045485641 0.72600001
0.011758979 -0.0045548296 0.72700006
0.012989209 -0.004561095 0.72800004
0.014222772 -0.00456736 0.72900003
0.015459673 -0.004573625 0.73000002
0.016699906 -0.0045798905 0.73100001
0.017943477 -0.004586156 0.73200005
0.019216564 -0.004598686 0.73400003
0.02046847 -0.0046049515 0.73500001
0.021753231 -0.004617482 0.73700005
0.023044661 -0.0046300124 0.73900002
0.024309911 -0.0046362774 0.74000001
0.025613016 -0.0046488084 0.74200004
0.026886603 -0.0046550734 0.74300003
0.028201381 -0.0046676039 0.74500006
0.029483305 -0.0046738693 0.74600005
0.030768568 -0.0046801344 0.74700004
0.032057166 -0.0046863994 0.74800003
0.033393621 -0.0046989303 0.75000006
0.034690555 -0.0047051953 0.75100005
0.035990827 -0.0047114603 0.75200003
0.037294429 -0.0047177258 0.75300002
-0.092536323 -0.0034803706 0.75700003
-0.091153331 -0.0034757731 0.75600004
-0.089892589 -0.0034757731 0.75600004
-0.088514604 -0.0034711757 0.75500005
-0.087139942 -0.003466578 0.75400001
-0.085768633 -0.0034619803 0.75300002
-0.084400654 -0.0034573828 0.75200003
-0.082925446 -0.0034481878 0.75000006
-0.0814569 -0.0034389924 0.74800003
-0.080102265 -0.003434395 0.74700004
-0.078645393 -0.0034251998 0.74500006
-0.07719519 -0.0034160046 0.74300003
-0.07575167 -0.0034068094 0.74100006
-0.074415371 -0.0034022117 0.74000001
-0.072983518 -0.0033930168 0.73800004
-0.071655564 -0.003388419 0.73700005
-0.070235379 -0.0033792239 0.73500001
-0.068821877 -0.0033700287 0.73300004
-0.06750726 -0.0033654312 0.73200005
-0.066195972 -0.0033608335 0.73100001
-0.06488803 -0.0033562358 0.73000002
-0.063670635 -0.0033562358 0.73000002
-0.0623677 -0.0033516383 0.72900003
-0.061068092 -0.0033470409 0.72800004
-0.059854038 -0.0033470409 0.72800004
-0.058559436 -0.0033424434 0.72700006
-0.057347052 -0.0033424434 0.72700006
-0.056134667 -0.0033424434 0.72700006
-0.05484673 -0.0033378454 0.72600001
-0.053562135 -0.003333248 0.72500002
-0.052353084 -0.003333248 0.72500002
-0.051073488 -0.0033286505 0.72400004
-0.049797226 -0.003324053 0.72300005
-0.048591509 -0.003324053 0.72300005
-0.047320254 -0.0033194555 0.72200006
-0.046052333 -0.0033148576 0.72100002
-0.04478775 -0.0033102601 0.72000003
-0.043587036 -0.0033102601 0.72000003
-0.042386323 -0.0033102601 0.72000003
-0.041128408 -0.0033056627 0.71900004
-0.03992936 -0.0033056627 0.71900004
-0.038676452 -0.0033010652 0.71800005
-0.037479073 -0.0033010652 0.71800005
-0.036281697 -0.0033010652 0.71800005
-0.035084318 -0.0033010652 0.71800005
-0.03383974 -0.0032964672 0.71700001
-0.032644033 -0.0032964672 0.71700001
-0.031448323 -0.0032964672 0.71700001
-0.030252613 -0.0032964672 0.71700001
-0.029056903 -0.0032964672 0.71700001
-0.027861191 -0.0032964672 0.71700001
-0.026665483 -0.0032964672 0.71700001
-0.02543425 -0.0032918698 0.71600002
-0.024274064 -0.0032964672 0.71700001
-0.023078354 -0.0032964672 0.71700001
-0.021882644 -0.0032964672 0.71700001
-0.020686934 -0.0032964672 0.71700001
-0.019491224 -0.0032964672 0.71700001
-0.018295513 -0.0032964672 0.71700001
-0.017099805 -0.0032964672 0.71700001
-0.015904093 -0.0032964672 0.71700001
-0.014708385 -0.0032964672 0.71700001
-0.013512674 -0.0032964672 0.71700001
-0.012334144 -0.0033010652 0.71800005
-0.011136767 -0.0033010652 0.71800005
-0.0099393893 -0.0033010652 0.71800005
-0.0087420112 -0.0033010652 0.71800005
-0.0075551411 -0.0033056627 0.71900004
-0.0063560959 -0.0033056627 0.71900004
-0.0051642233 -0.0033102601 0.72000003
-0.0039635105 -0.0033102601 0.72000003
-0.0027627975 -0.0033102601 0.72000003
-0.0015642543 -0.0033148576 0.72100002
-0.00036187368 -0.0033148576 0.72100002
0.00084050687 -0.0033148576 0.72100002
0.0020457208 -0.0033194555 0.72200006
0.0032497691 -0.0033194555 0.72200006
0.004459986 -0.003324053 0.72300005
0.005673538 -0.0033286505 0.72400004
0.0068809218 -0.0033286505 0.72400004
0.0080994768 -0.003333248 0.72500002
0.0093213664 -0.0033378454 0.72600001
0.010546594 -0.0033424434 0.72700006
0.011775154 -0.0033470409 0.72800004
0.013007051 -0.0033516383 0.72900003
0.014242282 -0.0033562358 0.73000002
0.01548085 -0.0033608335 0.73100001
0.016722752 -0.0033654312 0.73200005
0.017992502 -0.0033746264 0.73400003
0.019242743 -0.0033792239 0.73500001
0.020524168 -0.003388419 0.73700005
0.021812262 -0.0033976142 0.73900002
0.023075843 -0.0034022117 0.74000001
0.024375614 -0.0034114071 0.74200004
0.025647534 -0.0034160046 0.74300003
0.026922788 -0.0034206021 0.74400002
0.028239233 -0.0034297975 0.74600005
0.029522827 -0.003434395 0.74700004
0.030809758 -0.0034389924 0.74800003
0.032142881 -0.0034481878 0.75000006
0.033482671 -0.0034573828 0.75200003
0.034736749 -0.0034573828 0.75200003
0.036038686 -0.0034619803 0.75300002
0.037343957 -0.003466578 0.75400001
0.038652569 -0.0034711757 0.75500005
-0.092414081 -0.0022150245 0.75600004
-0.091153331 -0.0022150245 0.75600004
-0.089892589 -0.0022150245 0.75600004
-0.088514604 -0.0022120946 0.75500005
-0.087255523 -0.0022120946 0.75500005
-0.08588253 -0.0022091644 0.75400001
-0.084400654 -0.0022033048 0.75200003
-0.083036013 -0.0022003748 0.75100005
-0.081565797 -0.002194515 0.74900001
-0.080102265 -0.0021886551 0.74700004
-0.078750953 -0.0021857251 0.74600005
-0.077299088 -0.0021798653 0.74400002
-0.075853892 -0.0021740056 0.74200004
-0.074515931 -0.0021710757 0.74100006
-0.07308241 -0.0021652156 0.73900002
-0.071752787 -0.0021622858 0.73800004
-0.07033094 -0.002156426 0.73600006
-0.069009654 -0.002153496 0.73500001
-0.067599483 -0.0021476361 0.73300004
-0.066286534 -0.0021447062 0.73200005
-0.064976916 -0.0021417763 0.73100001
-0.063670635 -0.0021388463 0.73000002
-0.062453251 -0.0021388463 0.73000002
-0.061151978 -0.0021359164 0.72900003
-0.059854038 -0.0021329864 0.72800004
-0.058639985 -0.0021329864 0.72800004
-0.057347052 -0.0021300567 0.72700006
-0.056134667 -0.0021300567 0.72700006
-0.05484673 -0.0021271266 0.72600001
-0.053636011 -0.0021271266 0.72600001
-0.052353084 -0.0021241966 0.72500002
-0.051144034 -0.0021241966 0.72500002
-0.049866103 -0.0021212669 0.72400004
-0.048591509 -0.002118337 0.72300005
-0.047320254 -0.002115407 0.72200006
-0.046116207 -0.002115407 0.72200006
-0.044849951 -0.0021124769 0.72100002
-0.043647572 -0.0021124769 0.72100002
-0.042386323 -0.0021095471 0.72000003
-0.04118561 -0.0021095471 0.72000003
-0.039984897 -0.0021095471 0.72000003
-0.038730316 -0.0021066172 0.71900004
-0.037531272 -0.0021066172 0.71900004
-0.036332227 -0.0021066172 0.71900004
-0.035133183 -0.0021066172 0.71900004
-0.033886939 -0.0021036873 0.71800005
-0.032689564 -0.0021036873 0.71800005
-0.031492185 -0.0021036873 0.71800005
-0.030294808 -0.0021036873 0.71800005
-0.029097432 -0.0021036873 0.71800005
-0.027900051 -0.0021036873 0.71800005
-0.026702674 -0.0021036873 0.71800005
-0.025505297 -0.0021036873 0.71800005
-0.02430792 -0.0021036873 0.71800005
-0.023110542 -0.0021036873 0.71800005
-0.021913165 -0.0021036873 0.71800005
-0.020715788 -0.0021036873 0.71800005
-0.019518409 -0.0021036873 0.71800005
-0.018321032 -0.0021036873 0.71800005
-0.017123654 -0.0021036873 0.71800005
-0.015926277 -0.0021036873 0.71800005
-0.014728899 -0.0021036873 0.71800005
-0.013531521 -0.0021036873 0.71800005
-0.012334144 -0.0021036873 0.71800005
-0.011152277 -0.0021066172 0.71900004
-0.0099532325 -0.0021066172 0.71900004
-0.0087541863 -0.0021066172 0.71900004
-0.0075551411 -0.0021066172 0.71900004
-0.006364936 -0.0021095471 0.72000003
-0.0051642233 -0.0021095471 0.72000003
-0.0039635105 -0.0021095471 0.72000003
-0.0027666348 -0.0021124769 0.72100002
-0.0015642543 -0.0021124769 0.72100002
-0.00036187368 -0.0021124769 0.72100002
0.00084167265 -0.002115407 0.72200006
0.0020457208 -0.002115407 0.72200006
0.0032542699 -0.002118337 0.72300005
0.0044661546 -0.0021212669 0.72400004
0.005673538 -0.0021212669 0.72400004
0.0068904255 -0.0021241966 0.72500002
0.008110649 -0.0021271266 0.72600001
0.0093342066 -0.0021300567 0.72700006
0.0105611 -0.0021329864 0.72800004
0.011791328 -0.0021359164 0.72900003
0.013024893 -0.0021388463 0.73000002
0.014261791 -0.0021417763 0.73100001
0.015502028 -0.0021447062 0.73200005
0.016768442 -0.0021505661 0.73400003
0.018017014 -0.002153496 0.73500001
0.019295106 -0.0021593559 0.73700005
0.020579863 -0.0021652156 0.73900002
0.021841777 -0.0021681455 0.74000001
0.023138212 -0.0021740056 0.74200004
0.024408465 -0.0021769353 0.74300003
0.025682053 -0.0021798653 0.74400002
0.026995162 -0.0021857251 0.74600005
0.028277088 -0.0021886551 0.74700004
0.029562348 -0.002191585 0.74800003
0.030892137 -0.0021974449 0.75000006
0.032185737 -0.0022003748 0.75100005
0.033527195 -0.0022062347 0.75300002
0.034829132 -0.0022091644 0.75400001
0.036134407 -0.0022120946 0.75500005
0.037393488 -0.0022120946 0.75500005
0.038703766 -0.0022150245 0.75600004
0.040017374 -0.0022179543 0.75700003
-0.092536323 -0.0009555383 0.75700003
-0.091153331 -0.00095427601 0.75600004
-0.089892589 -0.00095427601 0.75600004
-0.088514604 -0.00095301378 0.75500005
-0.087255523 -0.00095301378 0.75500005
-0.08588253 -0.00095175143 0.75400001
-0.084400654 -0.0009492269 0.75200003
-0.083036013 -0.00094796467 0.75100005
-0.081674702 -0.00094670244 0.75000006
-0.080209494 -0.00094417785 0.74800003
-0.078750953 -0.00094165333 0.74600005
-0.077402987 -0.0009403911 0.74500006
-0.075956121 -0.00093786651 0.74300003
-0.074616492 -0.00093660422 0.74200004
-0.073181301 -0.00093407964 0.74000001
-0.071850009 -0.00093281741 0.73900002
-0.070522055 -0.00093155517 0.73800004
-0.069103546 -0.00092903065 0.73600006
-0.067691706 -0.00092650607 0.73400003
-0.066377088 -0.00092524383 0.73300004
-0.065065809 -0.00092398154 0.73200005
-0.063757859 -0.00092271925 0.73100001
-0.062453251 -0.00092145696 0.73000002
-0.06123586 -0.00092145696 0.73000002
-0.059936255 -0.00092019473 0.72900003
-0.058639985 -0.00091893249 0.72800004
-0.057425931 -0.00091893249 0.72800004
-0.056134667 -0.0009176702 0.72700006
-0.054922279 -0.0009176702 0.72700006
-0.053636011 -0.00091640791 0.72600001
-0.052425291 -0.00091640791 0.72600001
-0.051144034 -0.00091514562 0.72500002
-0.049934976 -0.00091514562 0.72500002
-0.048658717 -0.00091388338 0.72400004
-0.047385797 -0.00091262115 0.72300005
-0.046116207 -0.00091135886 0.72200006
-0.044912159 -0.00091135886 0.72200006
-0.043647572 -0.00091009657 0.72100002
-0.042445194 -0.00091009657 0.72100002
-0.04118561 -0.00090883428 0.72000003
-0.039984897 -0.00090883428 0.72000003
-0.038784184 -0.00090883428 0.72000003
-0.03758347 -0.00090883428 0.72000003
-0.036382757 -0.00090883428 0.72000003
-0.035182048 -0.00090883428 0.72000003
-0.033934135 -0.00090757204 0.71900004
-0.032735091 -0.00090757204 0.71900004
-0.031536046 -0.00090757204 0.71900004
-0.030337002 -0.00090757204 0.71900004
-0.029137956 -0.00090757204 0.71900004
-0.02793891 -0.00090757204 0.71900004
-0.026739864 -0.00090757204 0.71900004
-0.025540819 -0.00090757204 0.71900004
-0.024341775 -0.00090757204 0.71900004
-0.023142731 -0.00090757204 0.71900004
-0.021943685 -0.00090757204 0.71900004
-0.020744639 -0.00090757204 0.71900004
-0.019545592 -0.00090757204 0.71900004
-0.018346548 -0.00090757204 0.71900004
-0.017147504 -0.00090757204 0.71900004
-0.015948458 -0.00090757204 0.71900004
-0.014749413 -0.00090757204 0.71900004
-0.013550367 -0.00090757204 0.71900004
-0.012351322 -0.00090757204 0.71900004
-0.011152277 -0.00090757204 0.71900004
-0.0099670747 -0.00090883428 0.72000003
-0.0087663615 -0.00090883428 0.72000003
-0.0075656488 -0.00090883428 0.72000003
-0.006364936 -0.00090883428 0.72000003
-0.0051642233 -0.00090883428 0.72000003
-0.0039690151 -0.00091009657 0.72100002
-0.0027666348 -0.00091009657 0.72100002
-0.0015664239 -0.00091135886 0.72200006
-0.00036237561 -0.00091135886 0.72200006
0.00084283837 -0.00091262115 0.72300005
0.0020485541 -0.00091262115 0.72300005
0.003258771 -0.00091388338 0.72400004
0.0044723232 -0.00091514562 0.72500002
0.0056813746 -0.00091514562 0.72500002
0.0068999296 -0.00091640791 0.72600001
0.0081218211 -0.0009176702 0.72700006
0.0093470458 -0.00091893249 0.72800004
0.0105611 -0.00091893249 0.72800004
0.011791328 -0.00092019473 0.72900003
0.013042735 -0.00092271925 0.73100001
0.014281303 -0.00092398154 0.73200005
0.015523206 -0.00092524383 0.73300004
0.016791288 -0.0009277683 0.73500001
0.018066041 -0.00093029288 0.73700005
0.019321285 -0.00093155517 0.73800004
0.020607712 -0.00093407964 0.74000001
0.021871295 -0.00093534199 0.74100006
0.023169395 -0.00093786651 0.74300003
0.024441317 -0.00093912875 0.74400002
0.025716573 -0.0009403911 0.74500006
0.027031349 -0.00094291556 0.74700004
0.028314941 -0.00094417785 0.74800003
0.029641394 -0.00094670244 0.75000006
0.030933326 -0.00094796467 0.75100005
0.032228593 -0.0009492269 0.75200003
0.03357172 -0.00095175143 0.75400001
0.034875326 -0.00095301378 0.75500005
0.036134407 -0.00095301378 0.75500005
0.037443016 -0.00095427601 0.75600004
0.038754959 -0.0009555383 0.75700003
0.040070239 -0.00095680053 0.75800002
-0.091273904 0.00030687792 0.75700003
-0.089892589 0.00030647253 0.75600004
-0.088514604 0.00030606714 0.75500005
-0.087255523 0.00030606714 0.75500005
-0.08588253 0.00030566176 0.75400001
-0.084512889 0.00030525637 0.75300002
-0.083146572 0.00030485098 0.75200003
-0.081674702 0.00030404024 0.75000006
-0.080209494 0.00030322943 0.74800003
-0.07885652 0.00030282405 0.74700004
-0.077402987 0.0003020133 0.74500006
-0.076058351 0.00030160788 0.74400002
-0.074717052 0.0003012025 0.74300003
-0.0732802 0.00030039175 0.74100006
-0.071947239 0.00029998634 0.74000001
-0.070617616 0.00029958095 0.73900002
-0.069197439 0.0002987702 0.73700005
-0.067876153 0.00029836482 0.73600006
-0.066467643 0.00029755401 0.73400003
-0.065154701 0.00029714862 0.73300004
-0.063845083 0.00029674327 0.73200005
-0.062538803 0.00029633785 0.73100001
-0.06123586 0.00029593246 0.73000002
-0.060018472 0.00029593246 0.73000002
-0.058720533 0.00029552708 0.72900003
-0.057504814 0.00029552708 0.72900003
-0.056211878 0.00029512172 0.72800004
-0.054922279 0.00029471633 0.72700006
-0.053709894 0.00029471633 0.72700006
-0.052425291 0.00029431091 0.72600001
-0.051214576 0.00029431091 0.72600001
-0.049934976 0.00029390553 0.72500002
-0.048658717 0.00029350017 0.72400004
-0.047385797 0.00029309478 0.72300005
-0.046180081 0.00029309478 0.72300005
-0.044912159 0.00029268939 0.72200006
-0.043708112 0.00029268939 0.72200006
-0.042445194 0.00029228398 0.72100002
-0.041242812 0.00029228398 0.72100002
-0.039984897 0.00029187859 0.72000003
-0.038784184 0.00029187859 0.72000003
-0.03758347 0.00029187859 0.72000003
-0.036382757 0.00029187859 0.72000003
-0.035182048 0.00029187859 0.72000003
-0.033981331 0.00029187859 0.72000003
-0.032780617 0.00029187859 0.72000003
-0.031579908 0.00029187859 0.72000003
-0.030379195 0.00029187859 0.72000003
-0.029178482 0.00029187859 0.72000003
-0.027977766 0.00029187859 0.72000003
-0.026777055 0.00029187859 0.72000003
-0.025576342 0.00029187859 0.72000003
-0.024375629 0.00029187859 0.72000003
-0.023174917 0.00029187859 0.72000003
-0.021974204 0.00029187859 0.72000003
-0.020773491 0.00029187859 0.72000003
-0.019572778 0.00029187859 0.72000003
-0.018372064 0.00029187859 0.72000003
-0.017171353 0.00029187859 0.72000003
-0.015970638 0.00029187859 0.72000003
-0.014769927 0.00029187859 0.72000003
-0.013569213 0.00029187859 0.72000003
-0.0123685 0.00029187859 0.72000003
-0.011167787 0.00029187859 0.72000003
-0.0099670747 0.00029187859 0.72000003
-0.0087663615 0.00029187859 0.72000003
-0.0075761569 0.00029228398 0.72100002
-0.0063737761 0.00029228398 0.72100002
-0.0051713958 0.00029228398 0.72100002
-0.0039690151 0.00029228398 0.72100002
-0.0027704721 0.00029268939 0.72200006
-0.0015685934 0.00029309478 0.72300005
-0.0003628775 0.00029309478 0.72300005
0.00084283837 0.00029309478 0.72300005
0.0020513874 0.00029350017 0.72400004
0.0032632721 0.00029390553 0.72500002
0.0044723232 0.00029390553 0.72500002
0.0056892107 0.00029431091 0.72600001
0.0069094342 0.00029471633 0.72700006
0.0081218211 0.00029471633 0.72700006
0.0093470458 0.00029512172 0.72800004
0.010575607 0.00029552708 0.72900003
0.011807503 0.00029593246 0.73000002
0.013042735 0.00029633785 0.73100001
0.014300812 0.00029714862 0.73300004
0.015544383 0.00029755401 0.73400003
0.016814133 0.00029836482 0.73600006
0.018090554 0.00029917556 0.73800004
0.019347467 0.00029958095 0.73900002
0.020635562 0.00030039175 0.74100006
0.02190081 0.00030079711 0.74200004
0.023200579 0.00030160788 0.74400002
0.024474168 0.0003020133 0.74500006
0.025751092 0.00030241869 0.74600005
0.027031349 0.00030282405 0.74700004
0.028352795 0.00030363482 0.74900001
0.029641394 0.00030404024 0.75000006
0.030974517 0.00030485098 0.75200003
0.032271449 0.00030525637 0.75300002
0.033616245 0.00030606714 0.75500005
0.034921519 0.00030647253 0.75600004
0.036182266 0.00030647253 0.75600004
0.037542067 0.00030728331 0.75800002
0.038806155 0.00030728331 0.75800002
0.040123105 0.00030768872 0.75900006
-0.091273904 0.0015692941 0.75700003
-0.089892589 0.0015672211 0.75600004
-0.088631839 0.0015672211 0.75600004
-0.087255523 0.0015651481 0.75500005
-0.08588253 0.001563075 0.75400001
-0.084512889 0.001561002 0.75300002
-0.083146572 0.001558929 0.75200003
-0.081674702 0.001554783 0.75000006
-0.080316722 0.0015527097 0.74900001
-0.07885652 0.0015485637 0.74700004
-0.077506885 0.0015464907 0.74600005
-0.076058351 0.0015423446 0.74400002
-0.074717052 0.0015402716 0.74300003
-0.073379092 0.0015381986 0.74200004
-0.071947239 0.0015340524 0.74000001
-0.070617616 0.0015319793 0.73900002
-0.069291323 0.0015299063 0.73800004
-0.067968376 0.0015278333 0.73700005
-0.066558197 0.0015236872 0.73500001
-0.065243587 0.0015216141 0.73400003
-0.0639323 0.0015195411 0.73300004
-0.062624358 0.0015174681 0.73200005
-0.061319746 0.001515395 0.73100001
-0.060018472 0.001513322 0.73000002
-0.058801081 0.001513322 0.73000002
-0.057504814 0.001511249 0.72900003
-0.056211878 0.0015091759 0.72800004
-0.054997824 0.0015091759 0.72800004
-0.053709894 0.0015071029 0.72700006
-0.052425291 0.0015050297 0.72600001
-0.051214576 0.0015050297 0.72600001
-0.049934976 0.0015029567 0.72500002
-0.048725925 0.0015029567 0.72500002
-0.047451336 0.0015008837 0.72400004
-0.046180081 0.0014988107 0.72300005
-0.044974364 0.0014988107 0.72300005
-0.043708112 0.0014967377 0.72200006
-0.042504065 0.0014967377 0.72200006
-0.041242812 0.0014946646 0.72100002
-0.04004043 0.0014946646 0.72100002
-0.038784184 0.0014925916 0.72000003
-0.037635669 0.0014946646 0.72100002
-0.036433291 0.0014946646 0.72100002
-0.035182048 0.0014925916 0.72000003
-0.033981331 0.0014925916 0.72000003
-0.032780617 0.0014925916 0.72000003
-0.031579908 0.0014925916 0.72000003
-0.030379195 0.0014925916 0.72000003
-0.029219007 0.0014946646 0.72100002
-0.028016625 0.0014946646 0.72100002
-0.026814245 0.0014946646 0.72100002
-0.025611864 0.0014946646 0.72100002
-0.024409484 0.0014946646 0.72100002
-0.023207104 0.0014946646 0.72100002
-0.021974204 0.0014925916 0.72000003
-0.020773491 0.0014925916 0.72000003
-0.019572778 0.0014925916 0.72000003
-0.018372064 0.0014925916 0.72000003
-0.017171353 0.0014925916 0.72000003
-0.015970638 0.0014925916 0.72000003
-0.014769927 0.0014925916 0.72000003
-0.013569213 0.0014925916 0.72000003
-0.0123685 0.0014925916 0.72000003
-0.011183298 0.0014946646 0.72100002
-0.0099809179 0.0014946646 0.72100002
-0.0087785376 0.0014946646 0.72100002
-0.0075761569 0.0014946646 0.72100002
-0.0063826167 0.0014967377 0.72200006
-0.0051785684 0.0014967377 0.72200006
-0.0039745206 0.0014967377 0.72200006
-0.0027743094 0.0014988107 0.72300005
-0.0015685934 0.0014988107 0.72300005
-0.0003633794 0.0015008837 0.72400004
0.0008440041 0.0015008837 0.72400004
0.002054221 0.0015029567 0.72500002
0.0032632721 0.0015029567 0.72500002
0.0044784918 0.0015050297 0.72600001
0.0056970473 0.0015071029 0.72700006
0.0069094342 0.0015071029 0.72700006
0.0081329923 0.0015091759 0.72800004
0.009359885 0.001511249 0.72900003
0.010590114 0.001513322 0.73000002
0.011823677 0.001515395 0.73100001
0.013060578 0.0015174681 0.73200005
0.014320322 0.0015216141 0.73400003
0.01556556 0.0015236872 0.73500001
0.016836978 0.0015278333 0.73700005
0.018115066 0.0015319793 0.73900002
0.019373646 0.0015340524 0.74000001
0.020663409 0.0015381986 0.74200004
0.021930326 0.0015402716 0.74300003
0.023200579 0.0015423446 0.74400002
0.02450702 0.0015464907 0.74600005
0.02578561 0.0015485637 0.74700004
0.027067535 0.0015506367 0.74800003
0.028390652 0.001554783 0.75000006
0.029680915 0.001556856 0.75100005
0.031015705 0.001561002 0.75300002
0.032314308 0.001563075 0.75400001
0.033616245 0.0015651481 0.75500005
0.034921519 0.0015672211 0.75600004
0.036277987 0.0015713671 0.75800002
0.037542067 0.0015713671 0.75800002
0.038857352 0.0015734403 0.75900006
0.040123105 0.0015734403 0.75900006
-0.091394477 0.0028354509 0.75800002
-0.090011492 0.0028317103 0.75700003
-0.088631839 0.0028279696 0.75600004
-0.087371089 0.0028279696 0.75600004
-0.085996442 0.002824229 0.75500005
-0.084625117 0.0028204881 0.75400001
-0.083146572 0.0028130068 0.75200003
-0.0817836 0.0028092661 0.75100005
-0.080316722 0.0028017848 0.74900001
-0.07885652 0.0027943035 0.74700004
-0.077506885 0.0027905628 0.74600005
-0.076058351 0.0027830813 0.74400002
-0.074717052 0.0027793406 0.74300003
-0.073379092 0.0027755999 0.74200004
-0.072044469 0.0027718593 0.74100006
-0.07071317 0.0027681184 0.74000001
-0.069385216 0.0027643777 0.73900002
-0.067968376 0.0027568964 0.73700005
-0.066648759 0.0027531558 0.73600006
-0.065332472 0.0027494149 0.73500001
-0.0639323 0.0027419336 0.73300004
-0.062624358 0.0027381929 0.73200005
-0.061403632 0.0027381929 0.73200005
-0.06010069 0.002734452 0.73100001
-0.058801081 0.0027307114 0.73000002
-0.057583693 0.0027307114 0.73000002
-0.056289092 0.0027269707 0.72900003
-0.054997824 0.00272323 0.72800004
-0.053783771 0.00272323 0.72800004
-0.052497506 0.0027194894 0.72700006
-0.051285122 0.0027194894 0.72700006
-0.050003853 0.0027157485 0.72600001
-0.048725925 0.0027120078 0.72500002
-0.047451336 0.0027082672 0.72400004
-0.046243951 0.0027082672 0.72400004
-0.044974364 0.0027045265 0.72300005
-0.043768648 0.0027045265 0.72300005
-0.042504065 0.0027007859 0.72200006
-0.041300017 0.0027007859 0.72200006
-0.04004043 0.002697045 0.72100002
-0.038838051 0.002697045 0.72100002
-0.037635669 0.002697045 0.72100002
-0.036433291 0.002697045 0.72100002
-0.035230909 0.002697045 0.72100002
-0.034028526 0.002697045 0.72100002
-0.032826148 0.002697045 0.72100002
-0.031623766 0.002697045 0.72100002
-0.030421387 0.002697045 0.72100002
-0.029259535 0.0027007859 0.72200006
-0.028055483 0.0027007859 0.72200006
-0.026851436 0.0027007859 0.72200006
-0.025647389 0.0027007859 0.72200006
-0.024443341 0.0027007859 0.72200006
-0.023239292 0.0027007859 0.72200006
-0.022004724 0.002697045 0.72100002
-0.020802343 0.002697045 0.72100002
-0.019599961 0.002697045 0.72100002
-0.018397581 0.002697045 0.72100002
-0.017195201 0.002697045 0.72100002
-0.01599282 0.002697045 0.72100002
-0.01479044 0.002697045 0.72100002
-0.013588059 0.002697045 0.72100002
-0.012385678 0.002697045 0.72100002
-0.011198809 0.0027007859 0.72200006
-0.009994762 0.0027007859 0.72200006
-0.0087907137 0.0027007859 0.72200006
-0.007586665 0.0027007859 0.72200006
-0.0063826167 0.0027007859 0.72200006
-0.005185741 0.0027045265 0.72300005
-0.0039800252 0.0027045265 0.72300005
-0.0027781464 0.0027082672 0.72400004
-0.0015707629 0.0027082672 0.72400004
-0.00036388129 0.0027120078 0.72500002
0.00084516988 0.0027120078 0.72500002
0.0020570543 0.0027157485 0.72600001
0.003267773 0.0027157485 0.72600001
0.0044846609 0.0027194894 0.72700006
0.0056970473 0.0027194894 0.72700006
0.0069189379 0.00272323 0.72800004
0.0081441635 0.0027269707 0.72900003
0.0093727242 0.0027307114 0.73000002
0.010604621 0.002734452 0.73100001
0.011839853 0.0027381929 0.73200005
0.01307842 0.0027419336 0.73300004
0.014339832 0.0027494149 0.73500001
0.015607917 0.0027568964 0.73700005
0.016859824 0.0027606371 0.73800004
0.01813958 0.0027681184 0.74000001
0.019399827 0.0027718593 0.74100006
0.020663409 0.0027755999 0.74200004
0.021930326 0.0027793406 0.74300003
0.023231763 0.0027868222 0.74500006
0.02450702 0.0027905628 0.74600005
0.02578561 0.0027943035 0.74700004
0.02710372 0.0028017848 0.74900001
0.028390652 0.0028055254 0.75000006
0.029720435 0.0028130068 0.75200003
0.031015705 0.0028167474 0.75300002
0.032357167 0.002824229 0.75500005
0.033660769 0.0028279696 0.75600004
0.035013903 0.0028354509 0.75800002
0.036277987 0.0028354509 0.75800002
0.037591599 0.0028391918 0.75900006
0.038857352 0.0028391918 0.75900006
0.040175967 0.0028429325 0.76000005
-0.091515057 0.004104943 0.75900006
-0.090130396 0.0040995348 0.75800002
-0.088866308 0.0040995348 0.75800002
-0.087371089 0.004088718 0.75600004
-0.086110339 0.004088718 0.75600004
-0.084625117 0.0040779011 0.75400001
-0.083257139 0.0040724929 0.75300002
-0.0817836 0.0040616761 0.75100005
-0.080316722 0.0040508593 0.74900001
-0.07885652 0.0040400429 0.74700004
-0.077506885 0.0040346347 0.74600005
-0.07616058 0.004029226 0.74500006
-0.074817613 0.0040238178 0.74400002
-0.073379092 0.004013001 0.74200004
-0.072044469 0.0040075928 0.74100006
-0.07071317 0.0040021841 0.74000001
-0.069385216 0.003996776 0.73900002
-0.068060599 0.0039913678 0.73800004
-0.066739313 0.0039859591 0.73700005
-0.065332472 0.0039751423 0.73500001
-0.064019516 0.0039697341 0.73400003
-0.062709905 0.0039643259 0.73300004
-0.061403632 0.0039589177 0.73200005
-0.06018291 0.0039589177 0.73200005
-0.058881633 0.003953509 0.73100001
-0.057583693 0.0039481008 0.73000002
-0.056366306 0.0039481008 0.73000002
-0.055073369 0.0039426922 0.72900003
-0.053783771 0.003937284 0.72800004
-0.052569717 0.003937284 0.72800004
-0.051285122 0.0039318758 0.72700006
-0.05007273 0.0039318758 0.72700006
-0.048793133 0.0039264672 0.72600001
-0.047516875 0.003921059 0.72500002
-0.046307825 0.003921059 0.72500002
-0.045036569 0.0039156508 0.72400004
-0.043768648 0.0039102421 0.72300005
-0.042562936 0.0039102421 0.72300005
-0.041300017 0.0039048339 0.72200006
-0.040095966 0.0039048339 0.72200006
-0.038891919 0.0039048339 0.72200006
-0.037687872 0.0039048339 0.72200006
-0.036433291 0.0038994255 0.72100002
-0.035230909 0.0038994255 0.72100002
-0.034028526 0.0038994255 0.72100002
-0.032871678 0.0039048339 0.72200006
-0.031667631 0.0039048339 0.72200006
-0.030463582 0.0039048339 0.72200006
-0.029259535 0.0039048339 0.72200006
-0.028055483 0.0039048339 0.72200006
-0.026851436 0.0039048339 0.72200006
-0.025647389 0.0039048339 0.72200006
-0.024443341 0.0039048339 0.72200006
-0.023239292 0.0039048339 0.72200006
-0.022035243 0.0039048339 0.72200006
-0.020831196 0.0039048339 0.72200006
