ply
format ascii 1.0
comment PCL generated
element vertex 1305
property float x
property float y
property float z
element camera 0
property float view_px
property float view_py
property float view_pz
property float x_axisx
property float x_axisy
property float x_axisz
property float y_axisx
property float y_axisy
property float y_axisz
property float z_axisx
property float z_axisy
property float z_axisz
property float focal
property float scalex
property float scaley
property float centerx
property float centery
property int viewportx
property int viewporty
property float k1
property float k2
end_header
-0.008571554 -0.064286277 0.70400006
-0.0074080313 -0.064377591 0.70500004
-0.0062323334 -0.064377591 0.70500004
-0.0050638076 -0.064468913 0.70600003
-0.003891947 -0.064560227 0.70700002
-0.0027167508 -0.064651541 0.708
-0.0015360499 -0.064651541 0.708
-0.00035585082 -0.064742856 0.70900005
0.0008276836 -0.06483417 0.71000004
0.0020145532 -0.064925484 0.71100003
0.0032002572 -0.064925484 0.71100003
0.0043921298 -0.065016799 0.71200001
0.005587338 -0.06510812 0.71300006
0.0067858817 -0.065199435 0.71400005
0.00798776 -0.065290749 0.71500003
0.0091801342 -0.065290749 0.71500003
0.010387016 -0.065382063 0.71600002
0.011597232 -0.065473378 0.71700001
0.012810786 -0.065564699 0.71800005
0.014047182 -0.065747328 0.72000003
0.015247896 -0.065747328 0.72000003
0.0164943 -0.065929964 0.72200006
0.01772286 -0.066021279 0.72300005
0.018954758 -0.066112593 0.72400004
0.020189987 -0.066203907 0.72500002
0.021428555 -0.066295221 0.72600001
0.022670459 -0.066386543 0.72700006
0.023915697 -0.066477858 0.72800004
0.025198787 -0.066660486 0.73000002
0.026452363 -0.0667518 0.73100001
0.027709275 -0.066843122 0.73200005
0.028969521 -0.066934437 0.73300004
0.030274294 -0.067117065 0.73500001
0.031542879 -0.067208387 0.73600006
0.032814801 -0.067299701 0.73700005
0.034090053 -0.067391016 0.73800004
0.035320785 -0.067391016 0.73800004
0.036601041 -0.06748233 0.73900002
0.037884638 -0.067573644 0.74000001
-0.12093446 -0.064815566 0.72300005
-0.11956315 -0.064725913 0.72200006
-0.11819516 -0.06463626 0.72100002
-0.11683052 -0.064546615 0.72000003
-0.11562981 -0.064546615 0.72000003
-0.11442909 -0.064546615 0.72000003
-0.11307113 -0.064456969 0.71900004
-0.11171649 -0.064367324 0.71800005
-0.11051911 -0.064367324 0.71800005
-0.10932173 -0.064367324 0.71800005
-0.10812436 -0.064367324 0.71800005
-0.10692698 -0.064367324 0.71800005
-0.10572959 -0.064367324 0.71800005
-0.1046778 -0.064456969 0.71900004
-0.10362267 -0.064546615 0.72000003
-0.10242197 -0.064546615 0.72000003
-0.10150243 -0.064725913 0.72200006
-0.10057621 -0.064905211 0.72400004
-0.099780582 -0.065174155 0.72700006
-0.098974936 -0.065443099 0.73000002
-0.0982932 -0.065801688 0.73400003
-0.09746588 -0.066070639 0.73700005
-0.096497983 -0.066249929 0.73900002
-0.095523402 -0.066429228 0.74100006
-0.09441492 -0.066518873 0.74200004
-0.093177512 -0.066518873 0.74200004
-0.091816209 -0.066429228 0.74100006
-0.090580471 -0.066429228 0.74100006
-0.08934474 -0.066429228 0.74100006
-0.08799009 -0.066339575 0.74000001
-0.086638793 -0.066249929 0.73900002
-0.085290827 -0.066160284 0.73800004
-0.083946191 -0.066070639 0.73700005
-0.082492657 -0.06589134 0.73500001
-0.081156366 -0.065801688 0.73400003
-0.079823405 -0.065712042 0.73300004
-0.078386545 -0.065532744 0.73100001
-0.077061921 -0.065443099 0.73000002
-0.075740635 -0.065353453 0.72900003
-0.074524917 -0.065353453 0.72900003
-0.073208638 -0.0652638 0.72800004
-0.071895689 -0.065174155 0.72700006
-0.070488848 -0.064994857 0.72500002
-0.069184244 -0.064905211 0.72400004
-0.06788297 -0.064815566 0.72300005
-0.066492803 -0.06463626 0.72100002
-0.065199867 -0.064546615 0.72000003
-0.063910268 -0.064456969 0.71900004
-0.062624 -0.064367324 0.71800005
-0.061255515 -0.064188026 0.71600002
-0.059977591 -0.064098381 0.71500003
-0.058703002 -0.064008728 0.71400005
-0.057512295 -0.064008728 0.71400005
-0.056242708 -0.063919082 0.71300006
-0.054976452 -0.063829429 0.71200001
-0.053789079 -0.063829429 0.71200001
-0.05252783 -0.063739784 0.71100003
-0.051342126 -0.063739784 0.71100003
-0.05008588 -0.063650139 0.71000004
-0.048901841 -0.063650139 0.71000004
-0.047650598 -0.063560493 0.70900005
-0.046468228 -0.063560493 0.70900005
-0.045221984 -0.06347084 0.708
-0.044041283 -0.06347084 0.708
-0.042860582 -0.06347084 0.708
-0.041679882 -0.06347084 0.708
-0.040441982 -0.063381188 0.70700002
-0.039262947 -0.063381188 0.70700002
-0.038030047 -0.063291542 0.70600003
-0.03685268 -0.063291542 0.70600003
-0.035624783 -0.063201897 0.70500004
-0.034400225 -0.063112251 0.70400006
-0.033226192 -0.063112251 0.70400006
-0.032006633 -0.063022599 0.70300001
-0.030790409 -0.062932953 0.70200002
-0.029619714 -0.062932953 0.70200002
-0.028408494 -0.0628433 0.70100003
-0.027239464 -0.0628433 0.70100003
-0.026070438 -0.0628433 0.70100003
-0.024901411 -0.0628433 0.70100003
-0.023732385 -0.0628433 0.70100003
-0.022563357 -0.0628433 0.70100003
-0.021394329 -0.0628433 0.70100003
-0.020225301 -0.0628433 0.70100003
-0.019083457 -0.062932953 0.70200002
-0.017912764 -0.062932953 0.70200002
-0.016742069 -0.062932953 0.70200002
-0.015593554 -0.063022599 0.70300001
-0.014421192 -0.063022599 0.70300001
-0.013267675 -0.063112251 0.70400006
-0.012093646 -0.063112251 0.70400006
-0.010919615 -0.063112251 0.70400006
-0.009759428 -0.063201897 0.70500004
-0.0085837292 -0.063201897 0.70500004
-0.0074185389 -0.063291542 0.70600003
-0.0062411735 -0.063291542 0.70600003
-0.0050709802 -0.063381188 0.70700002
-0.0038974518 -0.06347084 0.708
-0.0027167508 -0.06347084 0.708
-0.0015382196 -0.063560493 0.70900005
-0.00035635271 -0.063650139 0.71000004
0.00082884933 -0.063739784 0.71100003
0.0020145532 -0.063739784 0.71100003
0.0032047583 -0.063829429 0.71200001
0.0043982989 -0.063919082 0.71300006
0.0055951742 -0.064008728 0.71400005
0.0067953854 -0.064098381 0.71500003
0.00798776 -0.064098381 0.71500003
0.0091929734 -0.064188026 0.71600002
0.010401523 -0.064277671 0.71700001
0.011613407 -0.064367324 0.71800005
0.012828628 -0.064456969 0.71900004
0.014047182 -0.064546615 0.72000003
0.015269074 -0.06463626 0.72100002
0.0164943 -0.064725913 0.72200006
0.017747372 -0.064905211 0.72400004
0.018980937 -0.064994857 0.72500002
0.020217836 -0.065084502 0.72600001
0.021458071 -0.065174155 0.72700006
0.022701642 -0.0652638 0.72800004
0.023948548 -0.065353453 0.72900003
0.025233306 -0.065532744 0.73100001
0.02648855 -0.065622397 0.73200005
0.027747128 -0.065712042 0.73300004
0.029009042 -0.065801688 0.73400003
0.030315485 -0.065980986 0.73600006
0.031628594 -0.066160284 0.73800004
0.032903846 -0.066249929 0.73900002
0.034136247 -0.066249929 0.73900002
0.035368644 -0.066249929 0.73900002
0.036650568 -0.066339575 0.74000001
-0.12110173 -0.06369783 0.72400004
-0.11972874 -0.063609846 0.72300005
-0.1183591 -0.063521869 0.72200006
-0.11715505 -0.063521869 0.72200006
-0.1157904 -0.063433886 0.72100002
-0.11442909 -0.063345902 0.72000003
-0.11322839 -0.063345902 0.72000003
-0.11187208 -0.063257925 0.71900004
-0.11067303 -0.063257925 0.71900004
-0.10947399 -0.063257925 0.71900004
-0.10842554 -0.063345902 0.72000003
-0.1070759 -0.063257925 0.71900004
-0.1060241 -0.063345902 0.72000003
-0.1048234 -0.063345902 0.72000003
-0.10362267 -0.063345902 0.72000003
-0.10256422 -0.063433886 0.72100002
-0.10164301 -0.063609846 0.72300005
-0.10071513 -0.063785806 0.72500002
-0.099917829 -0.064049751 0.72800004
-0.099110521 -0.064313687 0.73100001
-0.098427117 -0.064665608 0.73500001
-0.097730368 -0.065017529 0.73900002
-0.096628554 -0.065105513 0.74000001
-0.095652312 -0.065281473 0.74200004
-0.094542161 -0.065369457 0.74300003
-0.093177512 -0.065281473 0.74200004
-0.091940112 -0.065281473 0.74200004
-0.090702713 -0.065281473 0.74200004
-0.08934474 -0.065193497 0.74100006
-0.08799009 -0.065105513 0.74000001
-0.086638793 -0.065017529 0.73900002
-0.085290827 -0.064929552 0.73800004
-0.083946191 -0.064841576 0.73700005
-0.082492657 -0.064665608 0.73500001
-0.081156366 -0.064577632 0.73400003
-0.079823405 -0.064489648 0.73300004
-0.078493781 -0.064401671 0.73200005
-0.077061921 -0.064225711 0.73000002
-0.075844534 -0.064225711 0.73000002
-0.074524917 -0.064137727 0.72900003
-0.073208638 -0.064049751 0.72800004
-0.071895689 -0.063961767 0.72700006
-0.07058607 -0.063873783 0.72600001
-0.069184244 -0.06369783 0.72400004
-0.06788297 -0.063609846 0.72300005
-0.066585034 -0.063521869 0.72200006
-0.065199867 -0.063345902 0.72000003
-0.063999154 -0.063345902 0.72000003
-0.062624 -0.063169949 0.71800005
-0.061341066 -0.063081965 0.71700001
-0.060061473 -0.062993981 0.71600002
-0.058785215 -0.062906004 0.71500003
-0.057512295 -0.062818021 0.71400005
-0.056321587 -0.062818021 0.71400005
-0.05505367 -0.062730044 0.71300006
-0.053864628 -0.062730044 0.71300006
-0.05260171 -0.06264206 0.71200001
-0.051414337 -0.06264206 0.71200001
-0.050156422 -0.062554084 0.71100003
-0.048901841 -0.0624661 0.71000004
-0.047717802 -0.0624661 0.71000004
-0.046468228 -0.062378123 0.70900005
-0.045285862 -0.062378123 0.70900005
-0.044103492 -0.062378123 0.70900005
-0.042860582 -0.062290136 0.708
-0.041679882 -0.062290136 0.708
-0.040499184 -0.062290136 0.708
-0.039262947 -0.062202159 0.70700002
-0.038083911 -0.062202159 0.70700002
-0.036904879 -0.062202159 0.70700002
-0.035675317 -0.062114179 0.70600003
-0.034449089 -0.062026199 0.70500004
-0.033226192 -0.061938219 0.70400006
-0.032006633 -0.061850235 0.70300001
-0.030834269 -0.061850235 0.70300001
-0.029619714 -0.061762255 0.70200002
-0.028449019 -0.061762255 0.70200002
-0.027278323 -0.061762255 0.70200002
-0.026107628 -0.061762255 0.70200002
-0.024936933 -0.061762255 0.70200002
-0.023766238 -0.061762255 0.70200002
-0.022595543 -0.061762255 0.70200002
-0.021424849 -0.061762255 0.70200002
-0.020254154 -0.061762255 0.70200002
-0.019083457 -0.061762255 0.70200002
-0.01793828 -0.061850235 0.70300001
-0.016765917 -0.061850235 0.70300001
-0.015593554 -0.061850235 0.70300001
-0.014441706 -0.061938219 0.70400006
-0.013267675 -0.061938219 0.70400006
-0.012110824 -0.062026199 0.70500004
-0.010935125 -0.062026199 0.70500004
-0.009759428 -0.062026199 0.70500004
-0.0085959053 -0.062114179 0.70600003
-0.007429047 -0.062202159 0.70700002
-0.0062500131 -0.062202159 0.70700002
-0.0050781528 -0.062290136 0.708
-0.0038974518 -0.062290136 0.708
-0.0027205884 -0.062378123 0.70900005
-0.0015403891 -0.0624661 0.71000004
-0.00035685461 -0.062554084 0.71100003
0.00083001505 -0.06264206 0.71200001
0.0020173865 -0.06264206 0.71200001
0.0032092594 -0.062730044 0.71300006
0.0044044675 -0.062818021 0.71400005
0.0056030108 -0.062906004 0.71500003
0.0068048895 -0.062993981 0.71600002
0.0079989322 -0.062993981 0.71600002
0.0092058126 -0.063081965 0.71700001
0.01041603 -0.063169949 0.71800005
0.011629582 -0.063257925 0.71900004
0.01284647 -0.063345902 0.72000003
0.014066692 -0.063433886 0.72100002
0.015290252 -0.063521869 0.72200006
0.016517146 -0.063609846 0.72300005
0.017747372 -0.06369783 0.72400004
0.018980937 -0.063785806 0.72500002
0.020245686 -0.063961767 0.72700006
0.021487588 -0.064049751 0.72800004
0.022732826 -0.064137727 0.72900003
0.023981398 -0.064225711 0.73000002
0.025233306 -0.064313687 0.73100001
0.026524737 -0.064489648 0.73300004
0.027784983 -0.064577632 0.73400003
0.029048564 -0.064665608 0.73500001
0.030356674 -0.064841576 0.73700005
0.03167145 -0.065017529 0.73900002
0.032903846 -0.065017529 0.73900002
0.034182437 -0.065105513 0.74000001
0.035464365 -0.065193497 0.74100006
0.0367001 -0.065193497 0.74100006
-0.11989434 -0.062490445 0.72400004
-0.11852303 -0.062404133 0.72300005
-0.11731731 -0.062404133 0.72300005
-0.11595101 -0.062317822 0.72200006
-0.11458802 -0.062231503 0.72100002
-0.11338565 -0.062231503 0.72100002
-0.11202767 -0.062145192 0.72000003
-0.11082696 -0.062145192 0.72000003
-0.10962624 -0.062145192 0.72000003
-0.10842554 -0.062145192 0.72000003
-0.10737374 -0.062231503 0.72100002
-0.1060241 -0.062145192 0.72000003
-0.10496898 -0.062231503 0.72100002
-0.10391052 -0.062317822 0.72200006
-0.10284873 -0.062404133 0.72300005
-0.10192417 -0.062576756 0.72500002
-0.10099297 -0.062749386 0.72700006
-0.10019232 -0.063008316 0.73000002
-0.099381685 -0.063267261 0.73300004
-0.09869495 -0.063612513 0.73700005
-0.097862616 -0.063871443 0.74000001
-0.09675914 -0.063957766 0.74100006
-0.095781222 -0.064130388 0.74300003
-0.094669402 -0.064216696 0.74400002
-0.093303084 -0.064130388 0.74300003
-0.092064023 -0.064130388 0.74300003
-0.090824947 -0.064130388 0.74300003
-0.089465305 -0.064044073 0.74200004
-0.088109002 -0.063957766 0.74100006
-0.086756028 -0.063871443 0.74000001
-0.085290827 -0.063698821 0.73800004
-0.083946191 -0.063612513 0.73700005
-0.0826049 -0.063526198 0.73600006
-0.081156366 -0.063353568 0.73400003
-0.079823405 -0.063267261 0.73300004
-0.078493781 -0.063180946 0.73200005
-0.077167481 -0.063094631 0.73100001
-0.075844534 -0.063008316 0.73000002
-0.074524917 -0.062922008 0.72900003
-0.073208638 -0.062835693 0.72800004
-0.071895689 -0.062749386 0.72700006
-0.07058607 -0.062663071 0.72600001
-0.069279797 -0.062576756 0.72500002
-0.067976855 -0.062490445 0.72400004
-0.066585034 -0.062317822 0.72200006
-0.065290421 -0.062231503 0.72100002
-0.063999154 -0.062145192 0.72000003
-0.062711217 -0.062058881 0.71900004
-0.061426625 -0.06197257 0.71800005
-0.060145359 -0.061886251 0.71700001
-0.058867432 -0.06179994 0.71600002
-0.057592843 -0.061713628 0.71500003
-0.056321587 -0.061627317 0.71400005
-0.05513088 -0.061627317 0.71400005
-0.053864628 -0.061541006 0.71300006
-0.05267559 -0.061541006 0.71300006
-0.051414337 -0.061454687 0.71200001
-0.050226968 -0.061454687 0.71200001
-0.048970714 -0.061368376 0.71100003
-0.047717802 -0.061282065 0.71000004
-0.046533767 -0.061282065 0.71000004
-0.045349732 -0.061282065 0.71000004
-0.044103492 -0.061195754 0.70900005
-0.042921122 -0.061195754 0.70900005
-0.041679882 -0.061109439 0.708
-0.040499184 -0.061109439 0.708
-0.03931848 -0.061109439 0.708
-0.038083911 -0.061023124 0.70700002
-0.036904879 -0.061023124 0.70700002
-0.035675317 -0.060936812 0.70600003
-0.034449089 -0.060850501 0.70500004
-0.033273388 -0.060850501 0.70500004
-0.032052163 -0.06076419 0.70400006
-0.030834269 -0.060677875 0.70300001
-0.029661907 -0.060677875 0.70300001
-0.028489545 -0.060677875 0.70300001
-0.027278323 -0.060591564 0.70200002
-0.026107628 -0.060591564 0.70200002
-0.024936933 -0.060591564 0.70200002
-0.023766238 -0.060591564 0.70200002
-0.022595543 -0.060591564 0.70200002
-0.021455368 -0.060677875 0.70300001
-0.020283006 -0.060677875 0.70300001
-0.019110642 -0.060677875 0.70300001
-0.017963797 -0.06076419 0.70400006
-0.016789768 -0.06076419 0.70400006
-0.015615736 -0.06076419 0.70400006
-0.01446222 -0.060850501 0.70500004
-0.013286521 -0.060850501 0.70500004
-0.012110824 -0.060850501 0.70500004
-0.010950636 -0.060936812 0.70600003
-0.0097732712 -0.060936812 0.70600003
-0.0086080804 -0.061023124 0.70700002
-0.007429047 -0.061023124 0.70700002
-0.0062588532 -0.061109439 0.708
-0.0050781528 -0.061109439 0.708
-0.0039029571 -0.061195754 0.70900005
-0.0027244254 -0.061282065 0.71000004
-0.0015425587 -0.061368376 0.71100003
-0.00035735653 -0.061454687 0.71200001
0.00083118089 -0.061541006 0.71300006
0.00202022 -0.061541006 0.71300006
0.0032137604 -0.061627317 0.71400005
0.0044106361 -0.061713628 0.71500003
0.0056108469 -0.06179994 0.71600002
0.0068048895 -0.06179994 0.71600002
0.0080101034 -0.061886251 0.71700001
0.0092186527 -0.06197257 0.71800005
0.010430537 -0.062058881 0.71900004
0.011645757 -0.062145192 0.72000003
0.012864312 -0.062231503 0.72100002
0.014086203 -0.062317822 0.72200006
0.015311429 -0.062404133 0.72300005
0.016539989 -0.062490445 0.72400004
0.017771885 -0.062576756 0.72500002
0.019007118 -0.062663071 0.72600001
0.020245686 -0.062749386 0.72700006
0.021487588 -0.062835693 0.72800004
0.022764008 -0.063008316 0.73000002
0.024014249 -0.063094631 0.73100001
0.025267826 -0.063180946 0.73200005
0.026560923 -0.063353568 0.73400003
0.027822837 -0.063439883 0.73500001
0.029127609 -0.063612513 0.73700005
0.030397862 -0.063698821 0.73800004
0.031714305 -0.063871443 0.74000001
0.032948371 -0.063871443 0.74000001
0.03422863 -0.063957766 0.74100006
0.035512224 -0.064044073 0.74200004
0.036749624 -0.064044073 0.74200004
-0.12005994 -0.061367705 0.72500002
-0.11868697 -0.061283059 0.72400004
-0.11747958 -0.061283059 0.72400004
-0.11611161 -0.061198417 0.72300005
-0.11474696 -0.061113771 0.72200006
-0.11354291 -0.061113771 0.72200006
-0.11218326 -0.061029125 0.72100002
-0.11098088 -0.061029125 0.72100002
-0.1097785 -0.061029125 0.72100002
-0.10857613 -0.061029125 0.72100002
-0.10737374 -0.061029125 0.72100002
-0.10617135 -0.061029125 0.72100002
-0.10511457 -0.061113771 0.72200006
-0.10391052 -0.061113771 0.72200006
-0.10284873 -0.061198417 0.72300005
-0.10206476 -0.061452348 0.72600001
-0.10113189 -0.061621644 0.72800004
-0.10032957 -0.061875574 0.73100001
-0.099652849 -0.062214155 0.73500001
-0.098962776 -0.062552735 0.73900002
-0.097994871 -0.062722027 0.74100006
-0.097020298 -0.062891319 0.74300003
-0.095910132 -0.062975958 0.74400002
-0.094669402 -0.062975958 0.74400002
-0.093428664 -0.062975958 0.74400002
-0.092187926 -0.062975958 0.74400002
-0.090947188 -0.062975958 0.74400002
-0.089585878 -0.062891319 0.74300003
-0.088109002 -0.062722027 0.74100006
-0.086756028 -0.062637381 0.74000001
-0.085406393 -0.062552735 0.73900002
-0.084060095 -0.062468093 0.73800004
-0.0826049 -0.062298805 0.73600006
-0.081156366 -0.062129512 0.73400003
-0.079823405 -0.062044866 0.73300004
-0.078493781 -0.061960224 0.73200005
-0.077167481 -0.061875574 0.73100001
-0.075844534 -0.061790928 0.73000002
-0.074524917 -0.061706286 0.72900003
-0.073208638 -0.061621644 0.72800004
-0.071895689 -0.061536998 0.72700006
-0.07058607 -0.061452348 0.72600001
-0.069279797 -0.061367705 0.72500002
-0.067976855 -0.061283059 0.72400004
-0.06667725 -0.061198417 0.72300005
-0.065290421 -0.061029125 0.72100002
-0.063999154 -0.060944479 0.72000003
-0.062711217 -0.060859837 0.71900004
-0.061426625 -0.060775191 0.71800005
-0.060145359 -0.060690541 0.71700001
-0.058867432 -0.060605898 0.71600002
-0.057673391 -0.060605898 0.71600002
-0.056400467 -0.060521256 0.71500003
-0.055208094 -0.060521256 0.71500003
-0.053940173 -0.06043661 0.71400005
-0.05274947 -0.06043661 0.71400005
-0.051486552 -0.060351968 0.71300006
-0.050226968 -0.060267318 0.71200001
-0.049039591 -0.060267318 0.71200001
-0.04778501 -0.060182672 0.71100003
-0.046599306 -0.060182672 0.71100003
-0.045349732 -0.06009803 0.71000004
-0.044165697 -0.06009803 0.71000004
-0.042921122 -0.060013384 0.70900005
-0.041738756 -0.060013384 0.70900005
-0.040499184 -0.059928738 0.708
-0.03931848 -0.059928738 0.708
-0.038137779 -0.059928738 0.708
-0.036904879 -0.059844092 0.70700002
-0.035725847 -0.059844092 0.70700002
-0.03449795 -0.059759449 0.70600003
-0.033320583 -0.059759449 0.70600003
-0.03209769 -0.059674803 0.70500004
-0.030878132 -0.059590161 0.70400006
-0.029704101 -0.059590161 0.70400006
-0.028489545 -0.059505511 0.70300001
-0.027317179 -0.059505511 0.70300001
-0.026144817 -0.059505511 0.70300001
-0.024972456 -0.059505511 0.70300001
-0.023800094 -0.059505511 0.70300001
-0.022627732 -0.059505511 0.70300001
-0.021455368 -0.059505511 0.70300001
-0.020311859 -0.059590161 0.70400006
-0.019137828 -0.059590161 0.70400006
-0.017963797 -0.059590161 0.70400006
-0.016813617 -0.059674803 0.70500004
-0.015637917 -0.059674803 0.70500004
-0.01446222 -0.059674803 0.70500004
-0.013305367 -0.059759449 0.70600003
-0.012128002 -0.059759449 0.70600003
-0.010950636 -0.059759449 0.70600003
-0.0097871134 -0.059844092 0.70700002
-0.0086202556 -0.059928738 0.708
-0.0074395547 -0.059928738 0.708
-0.0062676938 -0.060013384 0.70900005
-0.0050853253 -0.060013384 0.70900005
-0.0039084619 -0.06009803 0.71000004
-0.0027282627 -0.060182672 0.71100003
-0.0015447282 -0.060267318 0.71200001
-0.00035785846 -0.060351968 0.71300006
0.00083118089 -0.060351968 0.71300006
0.0020230536 -0.06043661 0.71400005
0.0032182615 -0.060521256 0.71500003
0.0044168048 -0.060605898 0.71600002
0.0056186831 -0.060690541 0.71700001
0.0068143932 -0.060690541 0.71700001
0.0080212755 -0.060775191 0.71800005
0.0092314919 -0.060859837 0.71900004
0.010445044 -0.060944479 0.72000003
0.011661931 -0.061029125 0.72100002
0.012882155 -0.061113771 0.72200006
0.014105713 -0.061198417 0.72300005
0.015332607 -0.061283059 0.72400004
0.016562834 -0.061367705 0.72500002
0.017796399 -0.061452348 0.72600001
0.0190333 -0.061536998 0.72700006
0.020273533 -0.061621644 0.72800004
0.021517104 -0.061706286 0.72900003
0.022764008 -0.061790928 0.73000002
0.024047103 -0.061960224 0.73200005
0.025302345 -0.062044866 0.73300004
0.026597109 -0.062214155 0.73500001
0.027898546 -0.062383447 0.73700005
0.029167131 -0.062468093 0.73800004
0.030439053 -0.062552735 0.73900002
0.031757165 -0.062722027 0.74100006
0.032992899 -0.062722027 0.74100006
0.034274824 -0.062806673 0.74200004
0.035512224 -0.062806673 0.74200004
0.036799151 -0.062891319 0.74300003
-0.11764184 -0.060158655 0.72500002
-0.1162722 -0.060075678 0.72400004
-0.11490589 -0.059992701 0.72300005
-0.11354291 -0.059909724 0.72200006
-0.11233886 -0.059909724 0.72200006
-0.11113482 -0.059909724 0.72200006
-0.10993077 -0.059909724 0.72200006
-0.10872672 -0.059909724 0.72200006
-0.10752267 -0.059909724 0.72200006
-0.10631862 -0.059909724 0.72200006
-0.10511457 -0.059909724 0.72200006
-0.10405444 -0.059992701 0.72300005
-0.10313323 -0.060158655 0.72500002
-0.10220535 -0.060324613 0.72700006
-0.1012708 -0.060490564 0.72900003
-0.10060407 -0.060822476 0.73300004
-0.09992402 -0.061154384 0.73700005
-0.099096686 -0.061403316 0.74000001
-0.09825936 -0.061652251 0.74300003
-0.097150877 -0.061735224 0.74400002
-0.096039049 -0.061818205 0.74500006
-0.094923891 -0.061901182 0.74600005
-0.093679816 -0.061901182 0.74600005
-0.092311844 -0.061818205 0.74500006
-0.091069438 -0.061818205 0.74500006
-0.089585878 -0.061652251 0.74300003
-0.088227905 -0.061569273 0.74200004
-0.086873271 -0.061486296 0.74100006
-0.085406393 -0.061320338 0.73900002
-0.084060095 -0.061237361 0.73800004
-0.082717128 -0.061154384 0.73700005
-0.081266932 -0.060988426 0.73500001
-0.079823405 -0.060822476 0.73300004
-0.078493781 -0.060739499 0.73200005
-0.077167481 -0.060656518 0.73100001
-0.075844534 -0.060573541 0.73000002
-0.074524917 -0.060490564 0.72900003
-0.073208638 -0.06040759 0.72800004
-0.071895689 -0.060324613 0.72700006
-0.07058607 -0.060241632 0.72600001
-0.069279797 -0.060158655 0.72500002
-0.067976855 -0.060075678 0.72400004
-0.06667725 -0.059992701 0.72300005
-0.065380983 -0.059909724 0.72200006
-0.064088047 -0.059826743 0.72100002
-0.06279844 -0.059743766 0.72000003
-0.061512176 -0.059660792 0.71900004
-0.060229246 -0.059577815 0.71800005
-0.058949649 -0.059494834 0.71700001
-0.057673391 -0.059411857 0.71600002
-0.05647935 -0.059411857 0.71600002
-0.055208094 -0.05932888 0.71500003
-0.054015718 -0.05932888 0.71500003
-0.05274947 -0.059245903 0.71400005
-0.051558763 -0.059245903 0.71400005
-0.050297514 -0.059162926 0.71300006
-0.049039591 -0.059079945 0.71200001
-0.047852218 -0.059079945 0.71200001
-0.046599306 -0.058996972 0.71100003
-0.045413606 -0.058996972 0.71100003
-0.044165697 -0.058913995 0.71000004
-0.042981662 -0.058913995 0.71000004
-0.041738756 -0.058831017 0.70900005
-0.040556386 -0.058831017 0.70900005
-0.03931848 -0.058748037 0.708
-0.038137779 -0.058748037 0.708
-0.036957078 -0.058748037 0.708
-0.035725847 -0.05866506 0.70700002
-0.034546815 -0.05866506 0.70700002
-0.033320583 -0.058582082 0.70600003
-0.032143217 -0.058582082 0.70600003
-0.030921992 -0.058499105 0.70500004
-0.029746294 -0.058499105 0.70500004
-0.028530072 -0.058416132 0.70400006
-0.02735604 -0.058416132 0.70400006
-0.026182009 -0.058416132 0.70400006
-0.02500798 -0.058416132 0.70400006
-0.023833949 -0.058416132 0.70400006
-0.02265992 -0.058416132 0.70400006
-0.021485889 -0.058416132 0.70400006
-0.020311859 -0.058416132 0.70400006
-0.019165011 -0.058499105 0.70500004
-0.017989313 -0.058499105 0.70500004
-0.016813617 -0.058499105 0.70500004
-0.015637917 -0.058499105 0.70500004
-0.014482734 -0.058582082 0.70600003
-0.013305367 -0.058582082 0.70600003
-0.012128002 -0.058582082 0.70600003
-0.010966146 -0.05866506 0.70700002
-0.0097871134 -0.05866506 0.70700002
-0.0086202556 -0.058748037 0.708
-0.0074500628 -0.058831017 0.70900005
-0.0062676938 -0.058831017 0.70900005
-0.0050924979 -0.058913995 0.71000004
-0.0039139665 -0.058996972 0.71100003
-0.0027320997 -0.059079945 0.71200001
-0.0015468978 -0.059162926 0.71300006
-0.00035785846 -0.059162926 0.71300006
0.00083234662 -0.059245903 0.71400005
0.0020258869 -0.05932888 0.71500003
0.0032227624 -0.059411857 0.71600002
0.0044168048 -0.059411857 0.71600002
0.0056186831 -0.059494834 0.71700001
0.0068238978 -0.059577815 0.71800005
0.0080324467 -0.059660792 0.71900004
0.0092443312 -0.059743766 0.72000003
0.010445044 -0.059743766 0.72000003
0.011661931 -0.059826743 0.72100002
0.012882155 -0.059909724 0.72200006
0.014105713 -0.059992701 0.72300005
0.015332607 -0.060075678 0.72400004
0.016562834 -0.060158655 0.72500002
0.017796399 -0.060241632 0.72600001
0.019059479 -0.06040759 0.72800004
0.020301381 -0.060490564 0.72900003
0.021546619 -0.060573541 0.73000002
0.022795191 -0.060656518 0.73100001
0.024079952 -0.060822476 0.73300004
0.025336863 -0.060905453 0.73400003
0.026633298 -0.061071411 0.73600006
0.027936399 -0.061237361 0.73800004
0.029206652 -0.061320338 0.73900002
0.030480241 -0.061403316 0.74000001
0.03180002 -0.061569273 0.74200004
0.033081949 -0.061652251 0.74300003
0.034321014 -0.061652251 0.74300003
0.035560083 -0.061652251 0.74300003
0.036848679 -0.061735224 0.74400002
-0.11643279 -0.058949597 0.72500002
-0.11506481 -0.058868289 0.72400004
-0.11370017 -0.058786981 0.72300005
-0.11249445 -0.058786981 0.72300005
-0.11128874 -0.058786981 0.72300005
-0.11008302 -0.058786981 0.72300005
-0.10887731 -0.058786981 0.72300005
-0.10767159 -0.058786981 0.72300005
-0.10646587 -0.058786981 0.72300005
-0.10526016 -0.058786981 0.72300005
-0.10419836 -0.058868289 0.72400004
-0.10313323 -0.058949597 0.72500002
-0.10234594 -0.059193529 0.72800004
-0.10140972 -0.059356146 0.73000002
-0.10074132 -0.059681386 0.73400003
-0.10019518 -0.060087934 0.73900002
-0.099498436 -0.060413174 0.74300003
-0.098523855 -0.060575798 0.74500006
-0.097412035 -0.060657106 0.74600005
-0.096296869 -0.060738415 0.74700004
-0.09505114 -0.060738415 0.74700004
-0.093805395 -0.060738415 0.74700004
-0.092435747 -0.060657106 0.74600005
-0.091069438 -0.060575798 0.74500006
-0.089706451 -0.060494483 0.74400002
-0.088346809 -0.060413174 0.74300003
-0.086873271 -0.060250558 0.74100006
-0.085521959 -0.060169242 0.74000001
-0.084060095 -0.060006626 0.73800004
-0.082717128 -0.059925318 0.73700005
-0.081266932 -0.059762694 0.73500001
-0.079932302 -0.059681386 0.73400003
-0.078601018 -0.059600078 0.73300004
-0.077167481 -0.059437454 0.73100001
-0.075844534 -0.059356146 0.73000002
-0.074524917 -0.059274837 0.72900003
-0.073208638 -0.059193529 0.72800004
-0.071895689 -0.059112221 0.72700006
-0.0706833 -0.059112221 0.72700006
-0.069375351 -0.059030905 0.72600001
-0.068070747 -0.058949597 0.72500002
-0.06667725 -0.058786981 0.72300005
-0.065380983 -0.058705673 0.72200006
-0.064088047 -0.058624357 0.72100002
-0.06279844 -0.058543049 0.72000003
-0.061597727 -0.058543049 0.72000003
-0.060313132 -0.058461741 0.71900004
-0.05903187 -0.058380432 0.71800005
-0.057753939 -0.058299117 0.71700001
-0.05647935 -0.058217809 0.71600002
-0.055285309 -0.058217809 0.71600002
-0.054015718 -0.0581365 0.71500003
-0.052823346 -0.0581365 0.71500003
-0.051558763 -0.058055192 0.71400005
-0.050368056 -0.058055192 0.71400005
-0.049108468 -0.057973884 0.71300006
-0.047852218 -0.057892568 0.71200001
-0.046664849 -0.057892568 0.71200001
-0.045413606 -0.05781126 0.71100003
-0.044227902 -0.05781126 0.71100003
-0.042981662 -0.057729952 0.71000004
-0.041797623 -0.057729952 0.71000004
-0.040556386 -0.057648644 0.70900005
-0.039374016 -0.057648644 0.70900005
-0.038137779 -0.057567332 0.708
-0.036957078 -0.057567332 0.708
-0.035776377 -0.057567332 0.708
-0.034595676 -0.057567332 0.708
-0.033367779 -0.05748602 0.70700002
-0.032143217 -0.057404712 0.70600003
-0.030965853 -0.057404712 0.70600003
-0.029788487 -0.057404712 0.70600003
-0.028570598 -0.057323404 0.70500004
-0.027394896 -0.057323404 0.70500004
-0.0262192 -0.057323404 0.70500004
-0.025043502 -0.057323404 0.70500004
-0.023867805 -0.057323404 0.70500004
-0.022692107 -0.057323404 0.70500004
-0.021516409 -0.057323404 0.70500004
-0.020340711 -0.057323404 0.70500004
-0.019192196 -0.057404712 0.70600003
-0.01801483 -0.057404712 0.70600003
-0.016837465 -0.057404712 0.70600003
-0.015660098 -0.057404712 0.70600003
-0.014503247 -0.05748602 0.70700002
-0.013324213 -0.05748602 0.70700002
-0.01214518 -0.05748602 0.70700002
-0.010981658 -0.057567332 0.708
-0.0098009566 -0.057567332 0.708
-0.0086202556 -0.057567332 0.708
-0.0074500628 -0.057648644 0.70900005
-0.0062765339 -0.057729952 0.71000004
-0.0050996705 -0.05781126 0.71100003
-0.0039139665 -0.05781126 0.71100003
-0.0027320997 -0.057892568 0.71200001
-0.0015468978 -0.057973884 0.71300006
-0.00035836035 -0.058055192 0.71400005
0.00083351234 -0.0581365 0.71500003
0.0020258869 -0.0581365 0.71500003
0.0032227624 -0.058217809 0.71600002
0.0044229734 -0.058299117 0.71700001
0.0056265201 -0.058380432 0.71800005
0.0068334015 -0.058461741 0.71900004
0.0080324467 -0.058461741 0.71900004
0.0092443312 -0.058543049 0.72000003
0.010459551 -0.058624357 0.72100002
0.011678106 -0.058705673 0.72200006
0.012899998 -0.058786981 0.72300005
0.014125222 -0.058868289 0.72400004
0.015353784 -0.058949597 0.72500002
0.01658568 -0.059030905 0.72600001
0.017820911 -0.059112221 0.72700006
0.019059479 -0.059193529 0.72800004
0.020301381 -0.059274837 0.72900003
0.021576134 -0.059437454 0.73100001
0.022826377 -0.059518769 0.73200005
0.024079952 -0.059600078 0.73300004
0.025371382 -0.059762694 0.73500001
0.026669484 -0.059925318 0.73700005
0.027974254 -0.060087934 0.73900002
0.029246172 -0.060169242 0.74000001
0.030521432 -0.060250558 0.74100006
0.03184288 -0.060413174 0.74300003
0.033081949 -0.060413174 0.74300003
0.034367207 -0.060494483 0.74400002
0.035607945 -0.060494483 0.74400002
0.036848679 -0.060494483 0.74400002
-0.11643279 -0.057740547 0.72500002
-0.11506481 -0.057660908 0.72400004
-0.11385743 -0.057660908 0.72400004
-0.11265004 -0.057660908 0.72400004
-0.11144267 -0.057660908 0.72400004
-0.11023528 -0.057660908 0.72400004
-0.1090279 -0.057660908 0.72400004
-0.10782051 -0.057660908 0.72400004
-0.10661312 -0.057660908 0.72400004
-0.10540575 -0.057660908 0.72400004
-0.10434227 -0.057740547 0.72500002
-0.10327549 -0.05782019 0.72600001
-0.10248651 -0.058059115 0.72900003
-0.10154863 -0.058218397 0.73100001
-0.10101583 -0.058616612 0.73600006
-0.10033076 -0.058935177 0.74000001
-0.099632345 -0.059253749 0.74400002
-0.098656103 -0.059413034 0.74600005
-0.097673193 -0.059572317 0.74800003
-0.096425779 -0.059572317 0.74800003
-0.095178381 -0.059572317 0.74800003
-0.093805395 -0.059492677 0.74700004
-0.092559658 -0.059492677 0.74700004
-0.091191672 -0.059413034 0.74600005
-0.089827031 -0.059333395 0.74500006
-0.088346809 -0.059174106 0.74300003
-0.086990505 -0.059094466 0.74200004
-0.085521959 -0.058935177 0.74000001
-0.084173992 -0.058855537 0.73900002
-0.082829364 -0.058775894 0.73800004
-0.081377499 -0.058616612 0.73600006
-0.079932302 -0.058457326 0.73400003
-0.078601018 -0.058377687 0.73300004
-0.077273056 -0.058298044 0.73200005
-0.075948425 -0.058218397 0.73100001
-0.074627146 -0.058138758 0.73000002
-0.073309198 -0.058059115 0.72900003
-0.07199458 -0.057979476 0.72800004
-0.0706833 -0.057899833 0.72700006
-0.069375351 -0.05782019 0.72600001
-0.068070747 -0.057740547 0.72500002
-0.066769473 -0.057660908 0.72400004
-0.065471537 -0.057581265 0.72300005
-0.064176932 -0.057501625 0.72200006
-0.062885657 -0.057421979 0.72100002
-0.061597727 -0.057342336 0.72000003
-0.060313132 -0.057262696 0.71900004
-0.05903187 -0.057183053 0.71800005
-0.057834491 -0.057183053 0.71800005
-0.056558229 -0.05710341 0.71700001
-0.055285309 -0.057023767 0.71600002
-0.054091267 -0.057023767 0.71600002
-0.052823346 -0.056944128 0.71500003
-0.051630974 -0.056944128 0.71500003
-0.050368056 -0.056864485 0.71400005
-0.049108468 -0.056784846 0.71300006
-0.04791943 -0.056784846 0.71300006
-0.046664849 -0.056705199 0.71200001
-0.045477476 -0.056705199 0.71200001
-0.044227902 -0.056625556 0.71100003
-0.043042198 -0.056625556 0.71100003
-0.041797623 -0.056545917 0.71000004
-0.040613588 -0.056545917 0.71000004
-0.039374016 -0.056466274 0.70900005
-0.03819165 -0.056466274 0.70900005
-0.03700928 -0.056466274 0.70900005
-0.035776377 -0.056386631 0.708
-0.034595676 -0.056386631 0.708
-0.033414975 -0.056386631 0.708
-0.032188747 -0.056306988 0.70700002
-0.031009713 -0.056306988 0.70700002
-0.029788487 -0.056227349 0.70600003
-0.028611122 -0.056227349 0.70600003
-0.027433755 -0.056227349 0.70600003
-0.02625639 -0.056227349 0.70600003
-0.025079025 -0.056227349 0.70600003
-0.023901658 -0.056227349 0.70600003
-0.022724293 -0.056227349 0.70600003
-0.021546928 -0.056227349 0.70600003
-0.020369561 -0.056227349 0.70600003
-0.01921938 -0.056306988 0.70700002
-0.018040346 -0.056306988 0.70700002
-0.016861314 -0.056306988 0.70700002
-0.01568228 -0.056306988 0.70700002
-0.014503247 -0.056306988 0.70700002
-0.013343059 -0.056386631 0.708
-0.012162359 -0.056386631 0.708
-0.010981658 -0.056386631 0.708
-0.0098009566 -0.056386631 0.708
-0.0086324317 -0.056466274 0.70900005
-0.0074605704 -0.056545917 0.71000004
-0.0062853741 -0.056625556 0.71100003
-0.0050996705 -0.056625556 0.71100003
-0.0039194715 -0.056705199 0.71200001
-0.0027359372 -0.056784846 0.71300006
-0.0015490674 -0.056864485 0.71400005
-0.00035886225 -0.056944128 0.71500003
0.00083351234 -0.056944128 0.71500003
0.0020287202 -0.057023767 0.71600002
0.0032272635 -0.05710341 0.71700001
0.0044291425 -0.057183053 0.71800005
0.0056265201 -0.057183053 0.71800005
0.0068334015 -0.057262696 0.71900004
0.0080436189 -0.057342336 0.72000003
0.0092571704 -0.057421979 0.72100002
0.010474059 -0.057501625 0.72200006
0.01169428 -0.057581265 0.72300005
0.01291784 -0.057660908 0.72400004
0.014144733 -0.057740547 0.72500002
0.015353784 -0.057740547 0.72500002
0.01658568 -0.05782019 0.72600001
0.017820911 -0.057899833 0.72700006
0.019085661 -0.058059115 0.72900003
0.02032923 -0.058138758 0.73000002
0.021576134 -0.058218397 0.73100001
0.02285756 -0.058377687 0.73300004
0.024112804 -0.058457326 0.73400003
0.025440421 -0.058696255 0.73700005
0.026705669 -0.058775894 0.73800004
0.028012108 -0.058935177 0.74000001
0.029285695 -0.059014823 0.74100006
0.030562621 -0.059094466 0.74200004
0.03184288 -0.059174106 0.74300003
0.03312647 -0.059253749 0.74400002
0.034367207 -0.059253749 0.74400002
0.035655808 -0.059333395 0.74500006
0.036898211 -0.059333395 0.74500006
-0.11401469 -0.056531496 0.72500002
-0.11265004 -0.056453522 0.72400004
-0.11159659 -0.056531496 0.72500002
-0.11038753 -0.056531496 0.72500002
-0.10129032 -0.057545166 0.73800004
-0.097803771 -0.058402885 0.74900001
-0.096683607 -0.058480863 0.75000006
-0.095305622 -0.058402885 0.74900001
-0.093930967 -0.058324911 0.74800003
-0.092683561 -0.058324911 0.74800003
-0.091313913 -0.058246937 0.74700004
-0.089947604 -0.058168963 0.74600005
-0.088465713 -0.058013011 0.74400002
-0.086990505 -0.057857063 0.74200004
-0.08563754 -0.057779092 0.74100006
-0.084287897 -0.057701115 0.74000001
-0.082829364 -0.057545166 0.73800004
-0.081488065 -0.057467192 0.73700005
-0.0800412 -0.057311241 0.73500001
-0.078708246 -0.057233267 0.73400003
-0.077378616 -0.057155292 0.73300004
-0.075948425 -0.056999341 0.73100001
-0.074627146 -0.05692137 0.73000002
-0.073309198 -0.056843396 0.72900003
-0.07199458 -0.056765422 0.72800004
-0.0706833 -0.056687448 0.72700006
-0.06947092 -0.056687448 0.72700006
-0.068164639 -0.05660947 0.72600001
-0.066769473 -0.056453522 0.72400004
-0.065471537 -0.056375548 0.72300005
-0.064176932 -0.056297578 0.72200006
-0.062885657 -0.0562196 0.72100002
-0.061597727 -0.056141626 0.72000003
-0.060397014 -0.056141626 0.72000003
-0.059114087 -0.056063652 0.71900004
-0.057834491 -0.055985678 0.71800005
-0.056558229 -0.0559077 0.71700001
-0.055362519 -0.0559077 0.71700001
-0.054091267 -0.055829726 0.71600002
-0.052823346 -0.055751752 0.71500003
-0.051630974 -0.055751752 0.71500003
-0.050368056 -0.055673778 0.71400005
-0.049177345 -0.055673778 0.71400005
-0.04791943 -0.055595808 0.71300006
-0.046664849 -0.055517826 0.71200001
-0.045477476 -0.055517826 0.71200001
-0.044290107 -0.055517826 0.71200001
-0.043042198 -0.055439856 0.71100003
-0.041856494 -0.055439856 0.71100003
-0.040613588 -0.055361882 0.71000004
-0.039429549 -0.055361882 0.71000004
-0.038245514 -0.055361882 0.71000004
-0.03700928 -0.055283908 0.70900005
-0.03582691 -0.055283908 0.70900005
-0.034644544 -0.055283908 0.70900005
-0.033414975 -0.05520593 0.708
-0.032234274 -0.05520593 0.708
-0.031053573 -0.05520593 0.708
-0.029872874 -0.05520593 0.708
-0.028651647 -0.055127956 0.70700002
-0.027472612 -0.055127956 0.70700002
-0.026293579 -0.055127956 0.70700002
-0.025114546 -0.055127956 0.70700002
-0.023935514 -0.055127956 0.70700002
-0.022756482 -0.055127956 0.70700002
-0.021607965 -0.05520593 0.708
-0.020427266 -0.05520593 0.708
-0.019246563 -0.05520593 0.708
-0.018065862 -0.05520593 0.708
-0.016885163 -0.05520593 0.708
-0.01570446 -0.05520593 0.708
-0.01452376 -0.05520593 0.708
-0.013343059 -0.05520593 0.708
-0.012162359 -0.05520593 0.708
-0.010997169 -0.055283908 0.70900005
-0.0098148007 -0.055283908 0.70900005
-0.0086324317 -0.055283908 0.70900005
-0.0074605704 -0.055361882 0.71000004
-0.0062853741 -0.055439856 0.71100003
-0.0051068426 -0.055517826 0.71200001
-0.0039194715 -0.055517826 0.71200001
-0.0027359372 -0.055595808 0.71300006
-0.0015490674 -0.055673778 0.71400005
-0.00035886225 -0.055751752 0.71500003
0.00083467807 -0.055829726 0.71600002
0.0020315535 -0.0559077 0.71700001
0.0032272635 -0.0559077 0.71700001
0.0044291425 -0.055985678 0.71800005
0.0056343563 -0.056063652 0.71900004
0.0068429057 -0.056141626 0.72000003
0.0080547901 -0.0562196 0.72100002
0.0092700105 -0.056297578 0.72200006
0.010474059 -0.056297578 0.72200006
0.01169428 -0.056375548 0.72300005
0.01291784 -0.056453522 0.72400004
0.014144733 -0.056531496 0.72500002
0.015374961 -0.05660947 0.72600001
0.016608527 -0.056687448 0.72700006
0.017845426 -0.056765422 0.72800004
0.019085661 -0.056843396 0.72900003
0.020357078 -0.056999341 0.73100001
0.021605652 -0.057077322 0.73200005
0.02285756 -0.057155292 0.73300004
0.024145655 -0.057311241 0.73500001
0.025474939 -0.057545166 0.73800004
0.026741855 -0.057623141 0.73900002
0.028049963 -0.057779092 0.74100006
0.029325217 -0.057857063 0.74200004
0.030603811 -0.057935037 0.74300003
0.031885736 -0.058013011 0.74400002
0.033170998 -0.058090989 0.74500006
0.034413401 -0.058090989 0.74500006
0.035655808 -0.058090989 0.74500006
0.036947738 -0.058168963 0.74600005
-0.096812516 -0.057306424 0.75100005
-0.095560111 -0.057306424 0.75100005
-0.094182126 -0.057230119 0.75000006
-0.092807472 -0.05715381 0.74900001
-0.091436155 -0.057077505 0.74800003
-0.089947604 -0.056924891 0.74600005
-0.088584624 -0.056848586 0.74500006
-0.08710774 -0.056695968 0.74300003
-0.085753106 -0.056619663 0.74200004
-0.084287897 -0.056467049 0.74000001
-0.082941599 -0.05639074 0.73900002
-0.081598632 -0.056314435 0.73800004
-0.080150105 -0.056161825 0.73600006
-0.078815475 -0.056085512 0.73500001
-0.077378616 -0.055932902 0.73300004
-0.07605233 -0.055856597 0.73200005
-0.074729368 -0.055780284 0.73100001
-0.073409759 -0.055703979 0.73000002
-0.072093472 -0.055627674 0.72900003
-0.070780531 -0.055551369 0.72800004
-0.06947092 -0.055475064 0.72700006
-0.068164639 -0.055398751 0.72600001
-0.066861697 -0.055322446 0.72500002
-0.065562092 -0.055246141 0.72400004
-0.064265825 -0.055169836 0.72300005
-0.062972881 -0.055093531 0.72200006
-0.061683279 -0.055017218 0.72100002
-0.060397014 -0.054940913 0.72000003
-0.059114087 -0.054864608 0.71900004
-0.057834491 -0.054788303 0.71800005
-0.056637116 -0.054788303 0.71800005
-0.055362519 -0.05471199 0.71700001
-0.054091267 -0.054635685 0.71600002
-0.052897222 -0.054635685 0.71600002
-0.051630974 -0.05455938 0.71500003
-0.050368056 -0.054483075 0.71400005
-0.049177345 -0.054483075 0.71400005
-0.04791943 -0.054406766 0.71300006
-0.046730392 -0.054406766 0.71300006
-0.045477476 -0.054330457 0.71200001
-0.044290107 -0.054330457 0.71200001
-0.043102734 -0.054330457 0.71200001
-0.041856494 -0.054254152 0.71100003
-0.04067079 -0.054254152 0.71100003
-0.039429549 -0.054177847 0.71000004
-0.038245514 -0.054177847 0.71000004
-0.037061479 -0.054177847 0.71000004
-0.035877444 -0.054177847 0.71000004
-0.034644544 -0.054101538 0.70900005
-0.033462174 -0.054101538 0.70900005
-0.032279804 -0.054101538 0.70900005
-0.031053573 -0.054025229 0.708
-0.029872874 -0.054025229 0.708
-0.028692173 -0.054025229 0.708
-0.02751147 -0.054025229 0.708
-0.026330769 -0.054025229 0.708
-0.025150068 -0.054025229 0.708
-0.023969369 -0.054025229 0.708
-0.022788668 -0.054025229 0.708
-0.021607965 -0.054025229 0.708
-0.020427266 -0.054025229 0.708
-0.019246563 -0.054025229 0.708
-0.018065862 -0.054025229 0.708
-0.016885163 -0.054025229 0.708
-0.01570446 -0.054025229 0.708
-0.01452376 -0.054025229 0.708
-0.013361906 -0.054101538 0.70900005
-0.012179538 -0.054101538 0.70900005
-0.010997169 -0.054101538 0.70900005
-0.0098286439 -0.054177847 0.71000004
-0.0086446069 -0.054177847 0.71000004
-0.0074710781 -0.054254152 0.71100003
-0.0062942142 -0.054330457 0.71200001
-0.0051068426 -0.054330457 0.71200001
-0.0039249766 -0.054406766 0.71300006
-0.0027397743 -0.054483075 0.71400005
-0.001551237 -0.05455938 0.71500003
-0.00035886225 -0.05455938 0.71500003
0.00083467807 -0.054635685 0.71600002
0.0020315535 -0.05471199 0.71700001
0.0032317648 -0.054788303 0.71800005
0.0044353111 -0.054864608 0.71900004
0.0056421924 -0.054940913 0.72000003
0.0068429057 -0.054940913 0.72000003
0.0080547901 -0.055017218 0.72100002
0.0092700105 -0.055093531 0.72200006
0.010488565 -0.055169836 0.72300005
0.011710455 -0.055246141 0.72400004
0.012935681 -0.055322446 0.72500002
0.014164242 -0.055398751 0.72600001
0.015374961 -0.055398751 0.72600001
0.01663137 -0.055551369 0.72800004
0.017869938 -0.055627674 0.72900003
0.01911184 -0.055703979 0.73000002
0.020357078 -0.055780284 0.73100001
0.021635167 -0.055932902 0.73300004
0.022888742 -0.056009207 0.73400003
0.024211358 -0.05623813 0.73700005
0.025509458 -0.05639074 0.73900002
0.026778042 -0.056467049 0.74000001
0.028087817 -0.056619663 0.74200004
0.029364739 -0.056695968 0.74300003
0.030645 -0.056772277 0.74400002
0.031928595 -0.056848586 0.74500006
0.033170998 -0.056848586 0.74500006
0.034459595 -0.056924891 0.74600005
0.035703667 -0.056924891 0.74600005
0.036997262 -0.057001196 0.74700004
-0.098195508 -0.056128655 0.75200003
-0.096941426 -0.056128655 0.75200003
-0.095560111 -0.056054015 0.75100005
-0.094307698 -0.056054015 0.75100005
-0.092931382 -0.055979379 0.75000006
-0.091558389 -0.055904735 0.74900001
-0.090068176 -0.055755459 0.74700004
-0.088703528 -0.055680819 0.74600005
-0.087224983 -0.055531539 0.74400002
-0.085868672 -0.055456903 0.74300003
-0.084401801 -0.055307623 0.74100006
-0.083053835 -0.055232983 0.74000001
-0.081598632 -0.055083707 0.73800004
-0.080259003 -0.055009067 0.73700005
-0.078815475 -0.054859787 0.73500001
-0.077484183 -0.054785147 0.73400003
-0.076156229 -0.054710511 0.73300004
-0.074831605 -0.054635871 0.73200005
-0.073510312 -0.054561228 0.73100001
-0.072192363 -0.054486591 0.73000002
-0.070877753 -0.054411951 0.72900003
-0.069566473 -0.054337315 0.72800004
-0.068258531 -0.054262675 0.72700006
-0.06695392 -0.054188035 0.72600001
-0.065562092 -0.054038756 0.72400004
-0.064265825 -0.053964119 0.72300005
-0.062972881 -0.053889479 0.72200006
-0.061683279 -0.05381484 0.72100002
-0.060397014 -0.0537402 0.72000003
-0.059196301 -0.0537402 0.72000003
-0.057915039 -0.053665563 0.71900004
-0.056637116 -0.053590924 0.71800005
-0.055362519 -0.05351628 0.71700001
-0.054091267 -0.053441644 0.71600002
-0.052897222 -0.053441644 0.71600002
-0.051630974 -0.053367004 0.71500003
-0.050438598 -0.053367004 0.71500003
-0.049177345 -0.053292368 0.71400005
-0.047986638 -0.053292368 0.71400005
-0.046730392 -0.053217728 0.71300006
-0.045541354 -0.053217728 0.71300006
-0.044290107 -0.053143084 0.71200001
-0.043102734 -0.053143084 0.71200001
-0.041915365 -0.053143084 0.71200001
-0.04067079 -0.053068448 0.71100003
-0.039485086 -0.053068448 0.71100003
-0.038299382 -0.053068448 0.71100003
-0.037113678 -0.053068448 0.71100003
-0.035877444 -0.052993808 0.71000004
-0.034693409 -0.052993808 0.71000004
-0.03350937 -0.052993808 0.71000004
-0.032325331 -0.052993808 0.71000004
-0.031097436 -0.052919172 0.70900005
-0.029915068 -0.052919172 0.70900005
-0.0287327 -0.052919172 0.70900005
-0.027550329 -0.052919172 0.70900005
-0.02636796 -0.052919172 0.70900005
-0.025185592 -0.052919172 0.70900005
-0.024003224 -0.052919172 0.70900005
-0.022820856 -0.052919172 0.70900005
-0.021638487 -0.052919172 0.70900005
-0.020456119 -0.052919172 0.70900005
-0.019273749 -0.052919172 0.70900005
-0.018091381 -0.052919172 0.70900005
-0.016909013 -0.052919172 0.70900005
-0.015726643 -0.052919172 0.70900005
-0.014544276 -0.052919172 0.70900005
-0.013361906 -0.052919172 0.70900005
-0.012179538 -0.052919172 0.70900005
-0.011012679 -0.052993808 0.71000004
-0.0098286439 -0.052993808 0.71000004
-0.0086567821 -0.053068448 0.71100003
-0.0074710781 -0.053068448 0.71100003
-0.0062942142 -0.053143084 0.71200001
-0.0051140157 -0.053217728 0.71300006
-0.0039304812 -0.053292368 0.71400005
-0.0027436116 -0.053367004 0.71500003
-0.001551237 -0.053367004 0.71500003
-0.00035936414 -0.053441644 0.71600002
0.00083584385 -0.05351628 0.71700001
0.0020343871 -0.053590924 0.71800005
0.0032362659 -0.053665563 0.71900004
0.0044414797 -0.0537402 0.72000003
0.0056421924 -0.0537402 0.72000003
0.0068524093 -0.05381484 0.72100002
0.0080659622 -0.053889479 0.72200006
0.0092828497 -0.053964119 0.72300005
0.010503072 -0.054038756 0.72400004
0.01172663 -0.054113396 0.72500002
0.012935681 -0.054113396 0.72500002
0.014164242 -0.054188035 0.72600001
0.015396141 -0.054262675 0.72700006
0.01663137 -0.054337315 0.72800004
0.017869938 -0.054411951 0.72900003
0.019138021 -0.054561228 0.73100001
0.020384926 -0.054635871 0.73200005
0.021664683 -0.054785147 0.73400003
0.022919927 -0.054859787 0.73500001
0.02424421 -0.055083707 0.73800004
0.025543977 -0.055232983 0.74000001
0.026850415 -0.055382263 0.74200004
0.02812567 -0.055456903 0.74300003
0.02940426 -0.055531539 0.74400002
0.03068619 -0.055606183 0.74500006
0.031971451 -0.055680819 0.74600005
0.033260047 -0.055755459 0.74700004
0.034505785 -0.055755459 0.74700004
0.035799384 -0.055830095 0.74800003
-0.098326087 -0.054947548 0.75300002
-0.097070336 -0.054947548 0.75300002
-0.095814593 -0.054947548 0.75300002
-0.09443327 -0.054874577 0.75200003
-0.092931382 -0.054728635 0.75000006
-0.091680638 -0.054728635 0.75000006
-0.090188749 -0.054582689 0.74800003
-0.088703528 -0.054436747 0.74600005
-0.087342225 -0.05436378 0.74500006
-0.085868672 -0.054217834 0.74300003
-0.084515706 -0.054144863 0.74200004
-0.08316607 -0.054071892 0.74100006
-0.081709199 -0.053925946 0.73900002
-0.0803679 -0.053852975 0.73800004
-0.07902994 -0.053780004 0.73700005
-0.077589743 -0.053634059 0.73500001
-0.07626012 -0.053561088 0.73400003
-0.074831605 -0.053415149 0.73200005
-0.073510312 -0.053342171 0.73100001
-0.072192363 -0.053269204 0.73000002
-0.070877753 -0.053196233 0.72900003
-0.069566473 -0.053123262 0.72800004
-0.068258531 -0.053050291 0.72700006
-0.06695392 -0.052977316 0.72600001
-0.065652646 -0.052904345 0.72500002
-0.06435471 -0.052831374 0.72400004
-0.063060097 -0.052758403 0.72300005
-0.061768834 -0.052685432 0.72200006
-0.060480896 -0.052612457 0.72100002
-0.059196301 -0.052539486 0.72000003
-0.057915039 -0.052466515 0.71900004
-0.056637116 -0.052393548 0.71800005
