ply
format ascii 1.0
comment PCL generated
element vertex 1337
property float x
property float y
property float z
element camera 0
property float view_px
property float view_py
property float view_pz
property float x_axisx
property float x_axisy
property float x_axisz
property float y_axisx
property float y_axisy
property float y_axisz
property float z_axisx
property float z_axisy
property float z_axisz
property float focal
property float scalex
property float scaley
property float centerx
property float centery
property int viewportx
property int viewporty
property float k1
property float k2
end_header
0.024606848 -0.1494132 0.68000001
0.025778711 -0.14963295 0.68100005
0.026953906 -0.14985266 0.68200004
0.028132439 -0.15007238 0.68300003
-0.11917876 -0.15852793 0.72700006
-0.11796638 -0.15852793 0.72700006
-0.116754 -0.15852793 0.72700006
-0.11570053 -0.15874597 0.72800004
-0.11432922 -0.15852793 0.72700006
-0.11327242 -0.15874597 0.72800004
-0.11205837 -0.15874597 0.72800004
-0.11084431 -0.15874597 0.72800004
-0.10978086 -0.15896404 0.72900003
-0.10871405 -0.15918209 0.73000002
-0.10749666 -0.15918209 0.73000002
-0.10627927 -0.15918209 0.73000002
-0.10506188 -0.15918209 0.73000002
-0.10398675 -0.15940014 0.73100001
-0.10276768 -0.15940014 0.73100001
-0.10140972 -0.15918209 0.73000002
-0.10019232 -0.15918209 0.73000002
-0.098839357 -0.15896404 0.72900003
-0.097489722 -0.15874597 0.72800004
-0.096011162 -0.15830985 0.72600001
-0.094539292 -0.15787375 0.72400004
-0.093074083 -0.15743764 0.72200006
-0.09161555 -0.15700151 0.72000003
-0.090038106 -0.15634733 0.71700001
-0.088346772 -0.15547511 0.71300006
-0.08666876 -0.15460289 0.70900005
-0.085004099 -0.15373065 0.70500004
-0.083233878 -0.15264036 0.70000005
-0.081597567 -0.15176813 0.69600004
-0.079974592 -0.15089589 0.69200003
-0.078592777 -0.1504598 0.69000006
-0.077105381 -0.14980561 0.68700004
-0.075849138 -0.14958756 0.68600005
-0.074487321 -0.14915143 0.68400002
-0.073239416 -0.14893338 0.68300003
-0.072100401 -0.14893338 0.68300003
-0.070961393 -0.14893338 0.68300003
-0.069924608 -0.14915143 0.68400002
-0.068884499 -0.14936951 0.68500006
-0.067841046 -0.14958756 0.68600005
-0.066697039 -0.14958756 0.68600005
-0.065553024 -0.14958756 0.68600005
-0.06440901 -0.14958756 0.68600005
-0.063265003 -0.14958756 0.68600005
-0.062120989 -0.14958756 0.68600005
-0.060888089 -0.14936951 0.68500006
-0.059658516 -0.14915143 0.68400002
-0.058432288 -0.14893338 0.68300003
-0.057209395 -0.14871532 0.68200004
-0.055989839 -0.14849727 0.68100005
-0.05477361 -0.1482792 0.68000001
-0.053560723 -0.14806114 0.67900002
-0.052273959 -0.14762504 0.67700005
-0.05099386 -0.14718892 0.67500001
-0.049794316 -0.14697085 0.67400002
-0.048598103 -0.1467528 0.67300004
-0.047405228 -0.14653476 0.67200005
-0.046146806 -0.14609863 0.67000002
-0.044962268 -0.14588058 0.66900003
-0.043846607 -0.14588058 0.66900003
-0.042667072 -0.14566252 0.66800004
-0.041490875 -0.14544447 0.66700006
-0.040318009 -0.14522639 0.66600001
-0.03914848 -0.14500834 0.66500002
-0.037982285 -0.14479029 0.66400003
-0.036874961 -0.14479029 0.66400003
-0.035713769 -0.14457223 0.66300005
-0.034555916 -0.14435418 0.66200006
-0.033451926 -0.14435418 0.66200006
-0.032299072 -0.1441361 0.66100001
-0.031196749 -0.1441361 0.66100001
-0.030048901 -0.14391805 0.66000003
-0.028948247 -0.14391805 0.66000003
-0.027847594 -0.14391805 0.66000003
-0.026746942 -0.14391805 0.66000003
-0.025607429 -0.1437 0.65900004
-0.024508443 -0.1437 0.65900004
-0.023409458 -0.1437 0.65900004
-0.022310473 -0.1437 0.65900004
-0.021211486 -0.1437 0.65900004
-0.020081982 -0.14348194 0.65800005
-0.018984664 -0.14348194 0.65800005
-0.017887345 -0.14348194 0.65800005
-0.016790027 -0.14348194 0.65800005
-0.015692709 -0.14348194 0.65800005
-0.01459539 -0.14348194 0.65800005
-0.013498073 -0.14348194 0.65800005
-0.012400753 -0.14348194 0.65800005
-0.011303436 -0.14348194 0.65800005
-0.010206117 -0.14348194 0.65800005
-0.0091087995 -0.14348194 0.65800005
-0.0080236569 -0.1437 0.65900004
-0.0069351783 -0.14391805 0.66000003
-0.0058345245 -0.14391805 0.66000003
-0.0047482164 -0.14435418 0.66200006
-0.003644228 -0.14435418 0.66200006
-0.0025440762 -0.14457223 0.66300005
-0.0014405893 -0.14479029 0.66400003
-0.00033376698 -0.14500834 0.66500002
0.00077639049 -0.14522639 0.66600001
0.0018898833 -0.14544447 0.66700006
0.0030022105 -0.14544447 0.66700006
0.0041207066 -0.14566252 0.66800004
0.0052347011 -0.14566252 0.66800004
0.0063581998 -0.14588058 0.66900003
0.0074738623 -0.14588058 0.66900003
0.0086023631 -0.14609863 0.67000002
0.009719694 -0.14609863 0.67000002
0.010837023 -0.14609863 0.67000002
0.011972196 -0.14631668 0.671
0.013091194 -0.14631668 0.671
0.01423137 -0.14653476 0.67200005
0.015352035 -0.14653476 0.67200005
0.016497213 -0.1467528 0.67300004
0.017645726 -0.14697085 0.67400002
0.018797575 -0.14718892 0.67500001
0.019952759 -0.14740698 0.67600006
0.02111128 -0.14762504 0.67700005
0.022305986 -0.14806114 0.67900002
0.023472844 -0.1482792 0.68000001
0.024643037 -0.14849727 0.68100005
0.025816565 -0.14871532 0.68200004
0.026993427 -0.14893338 0.68300003
0.02821482 -0.14936951 0.68500006
-0.12055674 -0.15753192 0.72800004
-0.11934269 -0.15753192 0.72800004
-0.11812863 -0.15753192 0.72800004
-0.11691459 -0.15753192 0.72800004
-0.11570053 -0.15753192 0.72800004
-0.11448648 -0.15753192 0.72800004
-0.11327242 -0.15753192 0.72800004
-0.1122123 -0.15774831 0.72900003
-0.11099657 -0.15774831 0.72900003
-0.10993145 -0.15796469 0.73000002
-0.10886297 -0.15818109 0.73100001
-0.10764391 -0.15818109 0.73100001
-0.10642486 -0.15818109 0.73100001
-0.10534973 -0.15839748 0.73200005
-0.104129 -0.15839748 0.73200005
-0.10290828 -0.15839748 0.73200005
-0.10168756 -0.15839748 0.73200005
-0.10032957 -0.15818109 0.73100001
-0.098974936 -0.15796469 0.73000002
-0.097489722 -0.15753192 0.72800004
-0.096143417 -0.15731554 0.72700006
-0.094539292 -0.15666635 0.72400004
-0.093202993 -0.15644997 0.72300005
-0.09161555 -0.15580079 0.72000003
-0.090163685 -0.15536802 0.71800005
-0.088594586 -0.15471885 0.71500003
-0.086913243 -0.15385328 0.71100003
-0.085124671 -0.15277134 0.70600003
-0.083471686 -0.15190578 0.70200002
-0.081714801 -0.15082383 0.69700003
-0.080090165 -0.14995827 0.69300002
-0.078592777 -0.1493091 0.69000006
-0.077217616 -0.14887631 0.68800002
-0.075849138 -0.14844353 0.68600005
-0.074596226 -0.14822716 0.68500006
-0.073346645 -0.14801075 0.68400002
-0.072100401 -0.14779437 0.68300003
-0.071065292 -0.14801075 0.68400002
-0.070026845 -0.14822716 0.68500006
-0.06898506 -0.14844353 0.68600005
-0.067841046 -0.14844353 0.68600005
-0.066794261 -0.14865993 0.68700004
-0.065648578 -0.14865993 0.68700004
-0.064502902 -0.14865993 0.68700004
-0.063357219 -0.14865993 0.68700004
-0.062120989 -0.14844353 0.68600005
-0.060976975 -0.14844353 0.68600005
-0.05974574 -0.14822716 0.68500006
-0.05851784 -0.14801075 0.68400002
-0.057293277 -0.14779437 0.68300003
-0.056072053 -0.14757797 0.68200004
-0.054854162 -0.14736159 0.68100005
-0.053560723 -0.1469288 0.67900002
-0.052351173 -0.14671242 0.67800003
-0.051069409 -0.14627965 0.67600006
-0.049868193 -0.14606324 0.67500001
-0.048598103 -0.14563046 0.67300004
-0.047405228 -0.14541408 0.67200005
-0.046215679 -0.14519767 0.671
-0.045029476 -0.14498129 0.67000002
-0.043846607 -0.1447649 0.66900003
-0.042667072 -0.14454852 0.66800004
-0.041490875 -0.14433213 0.66700006
-0.040318009 -0.14411573 0.66600001
-0.03914848 -0.14389935 0.66500002
-0.038039487 -0.14389935 0.66500002
-0.036874961 -0.14368296 0.66400003
-0.035713769 -0.14346658 0.66300005
-0.034555916 -0.14325018 0.66200006
-0.033451926 -0.14325018 0.66200006
-0.03234794 -0.14325018 0.66200006
-0.031196749 -0.14303379 0.66100001
-0.030048901 -0.14281739 0.66000003
-0.028948247 -0.14281739 0.66000003
-0.027847594 -0.14281739 0.66000003
-0.026746942 -0.14281739 0.66000003
-0.025646286 -0.14281739 0.66000003
-0.024508443 -0.14260101 0.65900004
-0.023409458 -0.14260101 0.65900004
-0.022310473 -0.14260101 0.65900004
-0.021211486 -0.14260101 0.65900004
-0.0201125 -0.14260101 0.65900004
-0.019013515 -0.14260101 0.65900004
-0.017887345 -0.14238462 0.65800005
-0.016790027 -0.14238462 0.65800005
-0.015692709 -0.14238462 0.65800005
-0.01459539 -0.14238462 0.65800005
-0.013498073 -0.14238462 0.65800005
-0.012400753 -0.14238462 0.65800005
-0.011303436 -0.14238462 0.65800005
-0.010206117 -0.14238462 0.65800005
-0.0091226427 -0.14260101 0.65900004
-0.0080358321 -0.14281739 0.66000003
-0.0069351783 -0.14281739 0.66000003
-0.0058433646 -0.14303379 0.66100001
-0.0047482164 -0.14325018 0.66200006
-0.0036497326 -0.14346658 0.66300005
-0.0025479135 -0.14368296 0.66400003
-0.0014427588 -0.14389935 0.66500002
-0.00033426887 -0.14411573 0.66600001
0.00077755633 -0.14433213 0.66700006
0.0018898833 -0.14433213 0.66700006
0.0030067114 -0.14454852 0.66800004
0.0041207066 -0.14454852 0.66800004
0.0052425372 -0.1447649 0.66900003
0.0063581998 -0.1447649 0.66900003
0.0074850339 -0.14498129 0.67000002
0.0086023631 -0.14498129 0.67000002
0.009719694 -0.14498129 0.67000002
0.010837023 -0.14498129 0.67000002
0.011972196 -0.14519767 0.671
0.013091194 -0.14519767 0.671
0.01423137 -0.14541408 0.67200005
0.015352035 -0.14541408 0.67200005
0.016497213 -0.14563046 0.67300004
0.017619547 -0.14563046 0.67300004
0.018797575 -0.14606324 0.67500001
0.019952759 -0.14627965 0.67600006
0.02111128 -0.14649603 0.67700005
0.022305986 -0.1469288 0.67900002
0.023472844 -0.1471452 0.68000001
0.024679223 -0.14757797 0.68200004
0.025854418 -0.14779437 0.68300003
0.027032949 -0.14801075 0.68400002
0.02821482 -0.14822716 0.68500006
0.029442877 -0.14865993 0.68700004
-0.12072234 -0.15653259 0.72900003
-0.11950663 -0.15653259 0.72900003
-0.1182909 -0.15653259 0.72900003
-0.11707518 -0.15653259 0.72900003
-0.11585946 -0.15653259 0.72900003
-0.11464374 -0.15653259 0.72900003
-0.11342801 -0.15653259 0.72900003
-0.11236622 -0.1567473 0.73000002
-0.11114883 -0.1567473 0.73000002
-0.11008203 -0.15696202 0.73100001
-0.1090119 -0.15717675 0.73200005
-0.10779117 -0.15717675 0.73200005
-0.10671604 -0.15739147 0.73300004
-0.10549364 -0.15739147 0.73300004
-0.10427126 -0.15739147 0.73300004
-0.10304886 -0.15739147 0.73300004
-0.10182647 -0.15739147 0.73300004
-0.10032957 -0.15696202 0.73100001
-0.098974936 -0.1567473 0.73000002
-0.097623631 -0.15653259 0.72900003
-0.096143417 -0.15610313 0.72700006
-0.094539292 -0.15545897 0.72400004
-0.093202993 -0.15524425 0.72300005
-0.091742791 -0.15481479 0.72100002
-0.090289257 -0.15438536 0.71900004
-0.088594586 -0.15352647 0.71500003
-0.087035477 -0.15288229 0.71200001
-0.085365817 -0.1520234 0.708
-0.083709501 -0.15116453 0.70400006
-0.081949279 -0.15009092 0.69900006
-0.080321305 -0.14923203 0.69500005
-0.078706674 -0.14837313 0.69100004
-0.077329852 -0.14794368 0.68900001
-0.075849138 -0.14729953 0.68600005
-0.074596226 -0.1470848 0.68500006
-0.073346645 -0.14687008 0.68400002
-0.072205968 -0.14687008 0.68400002
-0.07116919 -0.1470848 0.68500006
-0.070129074 -0.14729953 0.68600005
-0.06908562 -0.14751424 0.68700004
-0.067939945 -0.14751424 0.68700004
-0.066891484 -0.14772896 0.68800002
-0.065648578 -0.14751424 0.68700004
-0.064502902 -0.14751424 0.68700004
-0.063357219 -0.14751424 0.68700004
-0.062120989 -0.14729953 0.68600005
-0.060976975 -0.14729953 0.68600005
-0.05974574 -0.1470848 0.68500006
-0.05851784 -0.14687008 0.68400002
-0.057293277 -0.14665535 0.68300003
-0.056072053 -0.14644063 0.68200004
-0.054854162 -0.14622591 0.68100005
-0.053639606 -0.14601117 0.68000001
-0.052351173 -0.14558174 0.67800003
-0.051144958 -0.14536703 0.67700005
-0.049868193 -0.14493757 0.67500001
-0.048670314 -0.14472285 0.67400002
-0.047405228 -0.14429341 0.67200005
-0.046215679 -0.14407867 0.671
-0.045029476 -0.14386396 0.67000002
-0.043846607 -0.14364924 0.66900003
-0.042667072 -0.14343452 0.66800004
-0.041490875 -0.1432198 0.66700006
-0.040378548 -0.1432198 0.66700006
-0.039207347 -0.14300507 0.66600001
-0.038039487 -0.14279035 0.66500002
-0.036874961 -0.14257562 0.66400003
-0.035767637 -0.14257562 0.66400003
-0.034608115 -0.14236091 0.66300005
-0.033451926 -0.14214619 0.66200006
-0.03234794 -0.14214619 0.66200006
-0.031196749 -0.14193146 0.66100001
-0.030094428 -0.14193146 0.66100001
-0.028948247 -0.14171673 0.66000003
-0.027847594 -0.14171673 0.66000003
-0.026746942 -0.14171673 0.66000003
-0.025646286 -0.14171673 0.66000003
-0.024545632 -0.14171673 0.66000003
-0.023409458 -0.14150202 0.65900004
-0.022310473 -0.14150202 0.65900004
-0.021211486 -0.14150202 0.65900004
-0.0201125 -0.14150202 0.65900004
-0.019013515 -0.14150202 0.65900004
-0.017914528 -0.14150202 0.65900004
-0.016815543 -0.14150202 0.65900004
-0.015716558 -0.14150202 0.65900004
-0.014617572 -0.14150202 0.65900004
-0.013518586 -0.14150202 0.65900004
-0.012419599 -0.14150202 0.65900004
-0.011320614 -0.14150202 0.65900004
-0.010221628 -0.14150202 0.65900004
-0.0091226427 -0.14150202 0.65900004
-0.0080358321 -0.14171673 0.66000003
-0.0069456859 -0.14193146 0.66100001
-0.0058433646 -0.14193146 0.66100001
-0.0047482164 -0.14214619 0.66200006
-0.0036497326 -0.14236091 0.66300005
-0.0025479135 -0.14257562 0.66400003
-0.0014427588 -0.14279035 0.66500002
-0.00033426887 -0.14300507 0.66600001
0.00077755633 -0.1432198 0.66700006
0.0018898833 -0.1432198 0.66700006
0.0030067114 -0.14343452 0.66800004
0.0041268752 -0.14364924 0.66900003
0.0052425372 -0.14364924 0.66900003
0.0063581998 -0.14364924 0.66900003
0.0074850339 -0.14386396 0.67000002
0.0086023631 -0.14386396 0.67000002
0.009719694 -0.14386396 0.67000002
0.010837023 -0.14386396 0.67000002
0.011972196 -0.14407867 0.671
0.013091194 -0.14407867 0.671
0.01423137 -0.14429341 0.67200005
0.015352035 -0.14429341 0.67200005
0.016497213 -0.14450812 0.67300004
0.017645726 -0.14472285 0.67400002
0.018797575 -0.14493757 0.67500001
0.019952759 -0.1451523 0.67600006
0.021142462 -0.14558174 0.67800003
0.022305986 -0.14579646 0.67900002
0.023507364 -0.14622591 0.68100005
0.024715409 -0.14665535 0.68300003
0.025892273 -0.14687008 0.68400002
0.027111994 -0.14729953 0.68600005
0.028256008 -0.14729953 0.68600005
0.029485734 -0.14772896 0.68800002
-0.12088794 -0.15552992 0.73000002
-0.11950663 -0.15531686 0.72900003
-0.11845316 -0.15552992 0.73000002
-0.11723578 -0.15552992 0.73000002
-0.11585946 -0.15531686 0.72900003
-0.11464374 -0.15531686 0.72900003
-0.1135836 -0.15552992 0.73000002
-0.11236622 -0.15552992 0.73000002
-0.11130109 -0.15574297 0.73100001
-0.11023263 -0.15595603 0.73200005
-0.1090119 -0.15595603 0.73200005
-0.10779117 -0.15595603 0.73200005
-0.10671604 -0.15616909 0.73300004
-0.10549364 -0.15616909 0.73300004
-0.10441351 -0.15638213 0.73400003
-0.10304886 -0.15616909 0.73300004
-0.10182647 -0.15616909 0.73300004
-0.10032957 -0.15574297 0.73100001
-0.098974936 -0.15552992 0.73000002
-0.097489722 -0.15510382 0.72800004
-0.096011162 -0.15467769 0.72600001
-0.094539292 -0.15425159 0.72400004
-0.093202993 -0.15403853 0.72300005
-0.09161555 -0.15339936 0.72000003
-0.090163685 -0.15297326 0.71800005
-0.088718489 -0.15254715 0.71600002
-0.087035477 -0.15169492 0.71200001
-0.085365817 -0.15084271 0.708
-0.083709501 -0.1499905 0.70400006
-0.080321305 -0.148073 0.69500005
-0.078706674 -0.14722079 0.69100004
-0.077329852 -0.14679468 0.68900001
-0.075849138 -0.14615552 0.68600005
-0.074596226 -0.14594246 0.68500006
-0.073346645 -0.14572939 0.68400002
-0.072311535 -0.14594246 0.68500006
-0.071273088 -0.14615552 0.68600005
-0.070129074 -0.14615552 0.68600005
-0.069186181 -0.14658162 0.68800002
-0.068038836 -0.14658162 0.68800002
-0.066988714 -0.14679468 0.68900001
-0.065839693 -0.14679468 0.68900001
-0.064690679 -0.14679468 0.68900001
-0.063449442 -0.14658162 0.68800002
-0.062302098 -0.14658162 0.68800002
-0.060976975 -0.14615552 0.68600005
-0.05983296 -0.14615552 0.68600005
-0.058603395 -0.14594246 0.68500006
-0.057377163 -0.14572939 0.68400002
-0.05615427 -0.14551635 0.68300003
-0.05493471 -0.14530329 0.68200004
-0.053639606 -0.14487718 0.68000001
-0.052428383 -0.14466412 0.67900002
-0.051144958 -0.14423802 0.67700005
-0.049942076 -0.14402497 0.67600006
-0.048742525 -0.14381191 0.67500001
-0.04747577 -0.1433858 0.67300004
-0.04628456 -0.14317276 0.67200005
-0.045029476 -0.14274663 0.67000002
-0.043912146 -0.14274663 0.67000002
-0.042730946 -0.14253359 0.66900003
-0.041553076 -0.14232053 0.66800004
-0.040378548 -0.14210747 0.66700006
-0.039207347 -0.14189442 0.66600001
-0.038039487 -0.14168136 0.66500002
-0.036930494 -0.14168136 0.66500002
-0.035767637 -0.14146832 0.66400003
-0.034608115 -0.14125526 0.66300005
-0.033451926 -0.1410422 0.66200006
-0.03234794 -0.1410422 0.66200006
-0.031243948 -0.1410422 0.66200006
-0.030094428 -0.14082915 0.66100001
-0.028992107 -0.14082915 0.66100001
-0.027847594 -0.14061609 0.66000003
-0.026746942 -0.14061609 0.66000003
-0.025646286 -0.14061609 0.66000003
-0.024545632 -0.14061609 0.66000003
-0.02344498 -0.14061609 0.66000003
-0.022344327 -0.14061609 0.66000003
-0.021243675 -0.14061609 0.66000003
-0.0201125 -0.14040303 0.65900004
-0.019013515 -0.14040303 0.65900004
-0.017914528 -0.14040303 0.65900004
-0.016815543 -0.14040303 0.65900004
-0.015716558 -0.14040303 0.65900004
-0.014617572 -0.14040303 0.65900004
-0.013518586 -0.14040303 0.65900004
-0.012419599 -0.14040303 0.65900004
-0.011320614 -0.14040303 0.65900004
-0.010237139 -0.14061609 0.66000003
-0.0091364859 -0.14061609 0.66000003
-0.0080358321 -0.14061609 0.66000003
-0.0069456859 -0.14082915 0.66100001
-0.0058522052 -0.1410422 0.66200006
-0.0047553889 -0.14125526 0.66300005
-0.0036552374 -0.14146832 0.66400003
-0.0025517505 -0.14168136 0.66500002
-0.0014427588 -0.14168136 0.66500002
-0.0003347708 -0.14210747 0.66700006
0.00077755633 -0.14210747 0.66700006
0.0018927167 -0.14232053 0.66800004
0.0030112125 -0.14253359 0.66900003
0.0041268752 -0.14253359 0.66900003
0.0052425372 -0.14253359 0.66900003
0.0063677039 -0.14274663 0.67000002
0.0074850339 -0.14274663 0.67000002
0.0086023631 -0.14274663 0.67000002
0.009719694 -0.14274663 0.67000002
0.010837023 -0.14274663 0.67000002
0.011972196 -0.14295968 0.671
0.013091194 -0.14295968 0.671
0.01423137 -0.14317276 0.67200005
0.015352035 -0.14317276 0.67200005
0.016497213 -0.1433858 0.67300004
0.017645726 -0.14359885 0.67400002
0.018797575 -0.14381191 0.67500001
0.019982275 -0.14423802 0.67700005
0.021173647 -0.14466412 0.67900002
0.022338837 -0.14487718 0.68000001
0.023541883 -0.14530329 0.68200004
0.024751596 -0.14572939 0.68400002
0.025967982 -0.14615552 0.68600005
0.027151516 -0.14636856 0.68700004
0.028338386 -0.14658162 0.68800002
0.029571449 -0.14700773 0.69000006
-0.12105354 -0.15452391 0.73100001
-0.11967055 -0.15431252 0.73000002
-0.11845316 -0.15431252 0.73000002
-0.11723578 -0.15431252 0.73000002
-0.11601838 -0.15431252 0.73000002
-0.114801 -0.15431252 0.73000002
-0.1135836 -0.15431252 0.73000002
-0.11252014 -0.15452391 0.73100001
-0.11145335 -0.1547353 0.73200005
-0.11023263 -0.1547353 0.73200005
-0.10916083 -0.15494668 0.73300004
-0.10793842 -0.15494668 0.73300004
-0.10686163 -0.15515807 0.73400003
-0.10563756 -0.15515807 0.73400003
-0.10441351 -0.15515807 0.73400003
-0.10318944 -0.15515807 0.73400003
-0.10182647 -0.15494668 0.73300004
-0.10019232 -0.15431252 0.73000002
-0.098839357 -0.15410113 0.72900003
-0.097355805 -0.15367837 0.72700006
-0.095878914 -0.15325558 0.72500002
-0.094408713 -0.15283282 0.72300005
-0.093074083 -0.15262143 0.72200006
-0.09161555 -0.15219866 0.72000003
-0.090163685 -0.15177588 0.71800005
-0.088718489 -0.15135311 0.71600002
-0.087035477 -0.15050755 0.71200001
-0.085365817 -0.149662 0.708
-0.083709501 -0.14881647 0.70400006
-0.081949279 -0.14775953 0.69900006
-0.077217616 -0.14543426 0.68800002
-0.075849138 -0.1450115 0.68600005
-0.074596226 -0.14480011 0.68500006
-0.073346645 -0.14458872 0.68400002
-0.072311535 -0.14480011 0.68500006
-0.071273088 -0.1450115 0.68600005
-0.070231304 -0.14522289 0.68700004
-0.069186181 -0.14543426 0.68800002
-0.068137728 -0.14564565 0.68900001
-0.066988714 -0.14564565 0.68900001
-0.065839693 -0.14564565 0.68900001
-0.064690679 -0.14564565 0.68900001
-0.063541666 -0.14564565 0.68900001
-0.062302098 -0.14543426 0.68800002
-0.061065864 -0.14522289 0.68700004
-0.05983296 -0.1450115 0.68600005
-0.058603395 -0.14480011 0.68500006
-0.057377163 -0.14458872 0.68400002
-0.05615427 -0.14437734 0.68300003
-0.05493471 -0.14416595 0.68200004
-0.053718489 -0.14395456 0.68100005
-0.052428383 -0.14353178 0.67900002
-0.051220503 -0.1433204 0.67800003
-0.050015952 -0.14310901 0.67700005
-0.048742525 -0.14268623 0.67500001
-0.047546316 -0.14247485 0.67400002
-0.04628456 -0.14205208 0.67200005
-0.045096684 -0.14184068 0.671
-0.043912146 -0.14162929 0.67000002
-0.042730946 -0.14141792 0.66900003
-0.041615281 -0.14141792 0.66900003
-0.040378548 -0.14099514 0.66700006
-0.039266221 -0.14099514 0.66700006
-0.038096689 -0.14078374 0.66600001
-0.036930494 -0.14057237 0.66500002
-0.035767637 -0.14036098 0.66400003
-0.034660313 -0.14036098 0.66400003
-0.03350246 -0.14014959 0.66300005
-0.03234794 -0.13993821 0.66200006
-0.031243948 -0.13993821 0.66200006
-0.030094428 -0.13972682 0.66100001
-0.028992107 -0.13972682 0.66100001
-0.027847594 -0.13951543 0.66000003
-0.026746942 -0.13951543 0.66000003
-0.025646286 -0.13951543 0.66000003
-0.024545632 -0.13951543 0.66000003
-0.02344498 -0.13951543 0.66000003
-0.022344327 -0.13951543 0.66000003
-0.021243675 -0.13951543 0.66000003
-0.020143019 -0.13951543 0.66000003
-0.019042367 -0.13951543 0.66000003
-0.017941713 -0.13951543 0.66000003
-0.01684106 -0.13951543 0.66000003
-0.015740406 -0.13951543 0.66000003
-0.014639752 -0.13951543 0.66000003
-0.013539099 -0.13951543 0.66000003
-0.012438445 -0.13951543 0.66000003
-0.011337793 -0.13951543 0.66000003
-0.010237139 -0.13951543 0.66000003
-0.0091364859 -0.13951543 0.66000003
-0.0080480073 -0.13972682 0.66100001
-0.0069561941 -0.13993821 0.66200006
-0.0058522052 -0.13993821 0.66200006
-0.0047553889 -0.14014959 0.66300005
-0.0036552374 -0.14036098 0.66400003
-0.0025517505 -0.14057237 0.66500002
-0.0014449283 -0.14078374 0.66600001
-0.0003347708 -0.14099514 0.66700006
0.00077755633 -0.14099514 0.66700006
0.0018927167 -0.14120653 0.66800004
0.0030112125 -0.14141792 0.66900003
0.0041268752 -0.14141792 0.66900003
0.0052503734 -0.14162929 0.67000002
0.0063677039 -0.14162929 0.67000002
0.0074850339 -0.14162929 0.67000002
0.0086023631 -0.14162929 0.67000002
0.009719694 -0.14162929 0.67000002
0.010853197 -0.14184068 0.671
0.011972196 -0.14184068 0.671
0.013091194 -0.14184068 0.671
0.01423137 -0.14205208 0.67200005
0.01537488 -0.14226347 0.67300004
0.016521726 -0.14247485 0.67400002
0.017671907 -0.14268623 0.67500001
0.018825425 -0.14289764 0.67600006
0.020011792 -0.1433204 0.67800003
0.021204829 -0.14374317 0.68000001
0.02240454 -0.14416595 0.68200004
0.02361092 -0.14458872 0.68400002
0.024823969 -0.1450115 0.68600005
0.025967982 -0.1450115 0.68600005
0.027191037 -0.14543426 0.68800002
0.028379576 -0.14564565 0.68900001
0.029571449 -0.14585705 0.69000006
-0.12105354 -0.15330486 0.73100001
-0.11983448 -0.15330486 0.73100001
-0.11861543 -0.15330486 0.73100001
-0.11739637 -0.15330486 0.73100001
-0.11601838 -0.15309514 0.73000002
-0.114801 -0.15309514 0.73000002
-0.1137392 -0.15330486 0.73100001
-0.11252014 -0.15330486 0.73100001
-0.11145335 -0.15351458 0.73200005
-0.11038322 -0.1537243 0.73300004
-0.10930975 -0.15393402 0.73400003
-0.10808568 -0.15393402 0.73400003
-0.10700721 -0.15414374 0.73500001
-0.10578148 -0.15414374 0.73500001
-0.10441351 -0.15393402 0.73400003
-0.10318944 -0.15393402 0.73400003
-0.10168756 -0.15351458 0.73200005
-0.10019232 -0.15309514 0.73000002
-0.098703779 -0.1526757 0.72800004
-0.097221889 -0.15225625 0.72600001
-0.095878914 -0.15204655 0.72500002
-0.094408713 -0.15162711 0.72300005
-0.092945166 -0.15120766 0.72100002
-0.09161555 -0.15099795 0.72000003
-0.090163685 -0.15057851 0.71800005
-0.088470675 -0.14973964 0.71400005
-0.086913243 -0.14911047 0.71100003
-0.085365817 -0.14848131 0.708
-0.083590589 -0.14743271 0.70300001
-0.078592777 -0.14470637 0.69000006
-0.076993152 -0.14386749 0.68600005
-0.075738572 -0.14365777 0.68500006
-0.074378423 -0.14323834 0.68300003
-0.073346645 -0.14344804 0.68400002
-0.072311535 -0.14365777 0.68500006
-0.071273088 -0.14386749 0.68600005
-0.070231304 -0.14407721 0.68700004
-0.069186181 -0.14428693 0.68800002
-0.068137728 -0.14449663 0.68900001
-0.067085944 -0.14470637 0.69000006
-0.065935262 -0.14470637 0.69000006
-0.064784579 -0.14470637 0.69000006
-0.063633896 -0.14470637 0.69000006
-0.062392652 -0.14449663 0.68900001
-0.061154749 -0.14428693 0.68800002
-0.05983296 -0.14386749 0.68600005
-0.058688946 -0.14386749 0.68600005
-0.057461049 -0.14365777 0.68500006
-0.056236487 -0.14344804 0.68400002
-0.05493471 -0.14302862 0.68200004
-0.053718489 -0.1428189 0.68100005
-0.052505597 -0.14260916 0.68000001
-0.051296048 -0.14239945 0.67900002
-0.050015952 -0.14198002 0.67700005
-0.04881474 -0.1417703 0.67600006
-0.047616858 -0.14156057 0.67500001
-0.046353433 -0.14114113 0.67300004
-0.045163896 -0.14093143 0.67200005
-0.043977685 -0.14072169 0.671
-0.042794816 -0.14051197 0.67000002
-0.041615281 -0.14030226 0.66900003
-0.040439084 -0.14009254 0.66800004
-0.039266221 -0.13988282 0.66700006
-0.038153894 -0.13988282 0.66700006
-0.036986027 -0.1396731 0.66600001
-0.035821501 -0.13946338 0.66500002
-0.034660313 -0.13925366 0.66400003
-0.03350246 -0.13904394 0.66300005
-0.03234794 -0.13883422 0.66200006
-0.031243948 -0.13883422 0.66200006
-0.030139958 -0.13883422 0.66200006
-0.028992107 -0.1386245 0.66100001
-0.027889788 -0.1386245 0.66100001
-0.026746942 -0.13841479 0.66000003
-0.025646286 -0.13841479 0.66000003
-0.024545632 -0.13841479 0.66000003
-0.02344498 -0.13841479 0.66000003
-0.022344327 -0.13841479 0.66000003
-0.021243675 -0.13841479 0.66000003
-0.020143019 -0.13841479 0.66000003
-0.019042367 -0.13841479 0.66000003
-0.017941713 -0.13841479 0.66000003
-0.01684106 -0.13841479 0.66000003
-0.015740406 -0.13841479 0.66000003
-0.014639752 -0.13841479 0.66000003
-0.013539099 -0.13841479 0.66000003
-0.012438445 -0.13841479 0.66000003
-0.011337793 -0.13841479 0.66000003
-0.010237139 -0.13841479 0.66000003
-0.0091503281 -0.1386245 0.66100001
-0.0080480073 -0.1386245 0.66100001
-0.0069561941 -0.13883422 0.66200006
-0.0058610453 -0.13904394 0.66300005
-0.0047625615 -0.13925366 0.66400003
-0.0036552374 -0.13925366 0.66400003
-0.0025517505 -0.13946338 0.66500002
-0.0014449283 -0.1396731 0.66600001
-0.0003347708 -0.13988282 0.66700006
0.00077755633 -0.13988282 0.66700006
0.0018927167 -0.14009254 0.66800004
0.0030112125 -0.14030226 0.66900003
0.0041268752 -0.14030226 0.66900003
0.0052503734 -0.14051197 0.67000002
0.0063677039 -0.14051197 0.67000002
0.0074850339 -0.14051197 0.67000002
0.0086023631 -0.14051197 0.67000002
0.0097342003 -0.14072169 0.671
0.010853197 -0.14072169 0.671
0.011972196 -0.14072169 0.671
0.013110704 -0.14093143 0.67200005
0.01423137 -0.14093143 0.67200005
0.01537488 -0.14114113 0.67300004
0.016521726 -0.14135085 0.67400002
0.017671907 -0.14156057 0.67500001
0.018853273 -0.14198002 0.67700005
0.020041307 -0.14239945 0.67900002
0.021204829 -0.14260916 0.68000001
0.02240454 -0.14302862 0.68200004
0.02364544 -0.14365777 0.68500006
0.024823969 -0.14386749 0.68600005
0.026043689 -0.14428693 0.68800002
0.027230559 -0.14449663 0.68900001
0.028420767 -0.14470637 0.69000006
0.029614307 -0.14491609 0.69100004
-0.12105354 -0.1520858 0.73100001
-0.11983448 -0.1520858 0.73100001
-0.11861543 -0.1520858 0.73100001
-0.11739637 -0.1520858 0.73100001
-0.11617731 -0.1520858 0.73100001
-0.11495826 -0.1520858 0.73100001
-0.1137392 -0.1520858 0.73100001
-0.11267408 -0.15229385 0.73200005
-0.11160561 -0.1525019 0.73300004
-0.11053381 -0.15270995 0.73400003
-0.10945866 -0.152918 0.73500001
-0.10823293 -0.152918 0.73500001
-0.1071528 -0.15312606 0.73600006
-0.1059254 -0.15312606 0.73600006
-0.10455576 -0.152918 0.73500001
-0.10318944 -0.15270995 0.73400003
-0.10182647 -0.1525019 0.73300004
-0.10019232 -0.15187775 0.73000002
-0.098703779 -0.15146165 0.72800004
-0.097221889 -0.15104553 0.72600001
-0.095746674 -0.15062943 0.72400004
-0.094278142 -0.15021333 0.72200006
-0.092816256 -0.14979723 0.72000003
-0.091488309 -0.14958918 0.71900004
-0.089912526 -0.14896502 0.71600002
-0.088346772 -0.14834087 0.71300006
-0.08666876 -0.14750867 0.70900005
-0.085004099 -0.14667645 0.70500004
-0.083233878 -0.1456362 0.70000005
-0.081597567 -0.14480399 0.69600004
-0.079859026 -0.14376374 0.69100004
-0.078364968 -0.14313957 0.68800002
-0.076880917 -0.14251542 0.68500006
-0.075406872 -0.14189127 0.68200004
-0.074269526 -0.14189127 0.68200004
-0.073132187 -0.14189127 0.68200004
-0.072205968 -0.14230737 0.68400002
-0.07116919 -0.14251542 0.68500006
-0.070231304 -0.14293152 0.68700004
-0.069186181 -0.14313957 0.68800002
-0.068236627 -0.14355569 0.69000006
-0.067085944 -0.14355569 0.69000006
-0.065935262 -0.14355569 0.69000006
-0.064784579 -0.14355569 0.69000006
-0.063633896 -0.14355569 0.69000006
-0.062392652 -0.14334762 0.68900001
-0.061154749 -0.14313957 0.68800002
-0.059920177 -0.14293152 0.68700004
-0.058688946 -0.14272347 0.68600005
-0.057461049 -0.14251542 0.68500006
-0.056236487 -0.14230737 0.68400002
-0.055015262 -0.14209932 0.68300003
-0.053797372 -0.14189127 0.68200004
-0.052505597 -0.14147516 0.68000001
-0.051296048 -0.14126711 0.67900002
-0.050089829 -0.14105906 0.67800003
-0.04881474 -0.14064296 0.67600006
-0.047616858 -0.14043489 0.67500001
-0.04642231 -0.14022686 0.67400002
-0.045163896 -0.13981076 0.67200005
-0.044043228 -0.13981076 0.67200005
-0.04285869 -0.13960269 0.671
-0.041677486 -0.13939464 0.67000002
-0.04049962 -0.13918659 0.66900003
-0.039325088 -0.13897854 0.66800004
-0.038153894 -0.13877049 0.66700006
-0.036986027 -0.13856243 0.66600001
-0.035821501 -0.13835438 0.66500002
-0.034660313 -0.13814634 0.66400003
-0.033552989 -0.13814634 0.66400003
-0.032396801 -0.13793829 0.66300005
-0.031291142 -0.13793829 0.66300005
-0.030139958 -0.13773024 0.66200006
-0.029035971 -0.13773024 0.66200006
-0.027889788 -0.13752218 0.66100001
-0.026787467 -0.13752218 0.66100001
-0.025685143 -0.13752218 0.66100001
-0.024582824 -0.13752218 0.66100001
-0.02344498 -0.13731413 0.66000003
-0.022344327 -0.13731413 0.66000003
-0.021243675 -0.13731413 0.66000003
-0.020143019 -0.13731413 0.66000003
-0.019042367 -0.13731413 0.66000003
-0.017941713 -0.13731413 0.66000003
-0.01684106 -0.13731413 0.66000003
-0.015740406 -0.13731413 0.66000003
-0.014639752 -0.13731413 0.66000003
-0.013539099 -0.13731413 0.66000003
-0.012438445 -0.13731413 0.66000003
-0.011337793 -0.13731413 0.66000003
-0.010252649 -0.13752218 0.66100001
-0.0091503281 -0.13752218 0.66100001
-0.0080601834 -0.13773024 0.66200006
-0.0069561941 -0.13773024 0.66200006
-0.0058610453 -0.13793829 0.66300005
-0.0047625615 -0.13814634 0.66400003
-0.0036607422 -0.13835438 0.66500002
-0.0025555878 -0.13856243 0.66600001
-0.001447098 -0.13877049 0.66700006
-0.0003347708 -0.13877049 0.66700006
0.00077872205 -0.13897854 0.66800004
0.0018927167 -0.13897854 0.66800004
0.0030112125 -0.13918659 0.66900003
0.0041268752 -0.13918659 0.66900003
0.0052503734 -0.13939464 0.67000002
0.0063677039 -0.13939464 0.67000002
0.0074850339 -0.13939464 0.67000002
0.0086023631 -0.13939464 0.67000002
0.0097342003 -0.13960269 0.671
0.010853197 -0.13960269 0.671
0.01199004 -0.13981076 0.67200005
0.013110704 -0.13981076 0.67200005
0.014252547 -0.14001881 0.67300004
0.015397726 -0.14022686 0.67400002
0.016546238 -0.14043489 0.67500001
0.017698089 -0.14064296 0.67600006
0.01888112 -0.14105906 0.67800003
0.020041307 -0.14126711 0.67900002
0.021267198 -0.14189127 0.68200004
0.022470241 -0.14230737 0.68400002
0.023679959 -0.14272347 0.68600005
0.024860157 -0.14293152 0.68700004
0.026081543 -0.14334762 0.68900001
0.027270082 -0.14355569 0.69000006
0.028420767 -0.14355569 0.69000006
0.029657163 -0.14397179 0.69200003
-0.12121914 -0.15107313 0.73200005
-0.11983448 -0.15086675 0.73100001
-0.11861543 -0.15086675 0.73100001
-0.11739637 -0.15086675 0.73100001
-0.11617731 -0.15086675 0.73100001
-0.11495826 -0.15086675 0.73100001
-0.1137392 -0.15086675 0.73100001
-0.11267408 -0.15107313 0.73200005
-0.11175787 -0.15148589 0.73400003
-0.11053381 -0.15148589 0.73400003
-0.1096076 -0.15189867 0.73600006
-0.1083802 -0.15189867 0.73600006
-0.10729839 -0.15210505 0.73700005
-0.10606933 -0.15210505 0.73700005
-0.10469802 -0.15189867 0.73600006
-0.10333002 -0.15169227 0.73500001
-0.10196539 -0.15148589 0.73400003
-0.10032957 -0.15086675 0.73100001
-0.098703779 -0.15024759 0.72800004
-0.097221889 -0.14983483 0.72600001
-0.095746674 -0.14942206 0.72400004
-0.094278142 -0.1490093 0.72200006
-0.092816256 -0.14859653 0.72000003
-0.091361068 -0.14818376 0.71800005
-0.089786954 -0.1475646 0.71500003
-0.088098951 -0.14673907 0.71100003
-0.086424276 -0.14591353 0.70700002
-0.084762953 -0.14508799 0.70300001
-0.082996063 -0.14405607 0.69800001
-0.079627879 -0.14219861 0.68900001
-0.078023262 -0.14137308 0.68500006
-0.076656446 -0.14096031 0.68300003
-0.075406872 -0.14075392 0.68200004
-0.074269526 -0.14075392 0.68200004
-0.073132187 -0.14075392 0.68200004
-0.072100401 -0.14096031 0.68300003
-0.07116919 -0.14137308 0.68500006
-0.070231304 -0.14178585 0.68700004
-0.069186181 -0.14199223 0.68800002
-0.068137728 -0.14219861 0.68900001
-0.067085944 -0.142405 0.69000006
-0.066030815 -0.14261138 0.69100004
-0.064878464 -0.14261138 0.69100004
-0.063633896 -0.142405 0.69000006
-0.06248321 -0.142405 0.69000006
-0.061243635 -0.14219861 0.68900001
-0.060007397 -0.14199223 0.68800002
-0.058688946 -0.14157946 0.68600005
-0.057461049 -0.14137308 0.68500006
-0.056236487 -0.14116669 0.68400002
-0.055015262 -0.14096031 0.68300003
-0.053797372 -0.14075392 0.68200004
-0.052582815 -0.14054754 0.68100005
-0.051371593 -0.14034115 0.68000001
-0.050163709 -0.14013477 0.67900002
-0.048886951 -0.139722 0.67700005
-0.047687404 -0.13951562 0.67600006
-0.046491183 -0.13930923 0.67500001
-0.0452311 -0.13889647 0.67300004
-0.044043228 -0.13869008 0.67200005
-0.04285869 -0.1384837 0.671
-0.041677486 -0.13827732 0.67000002
-0.040560156 -0.13827732 0.67000002
-0.039383959 -0.13807094 0.66900003
-0.038211096 -0.13786456 0.66800004
-0.037041564 -0.13765816 0.66700006
-0.035875369 -0.13745178 0.66600001
-0.034712512 -0.1372454 0.66500002
-0.033552989 -0.13703902 0.66400003
-0.032445665 -0.13703902 0.66400003
-0.031291142 -0.13683264 0.66300005
-0.030185487 -0.13683264 0.66300005
-0.029035971 -0.13662626 0.66200006
-0.027931983 -0.13662626 0.66200006
-0.026827995 -0.13662626 0.66200006
-0.025724003 -0.13662626 0.66200006
-0.024620015 -0.13662626 0.66200006
-0.023480503 -0.13641986 0.66100001
-0.022378182 -0.13641986 0.66100001
-0.021275861 -0.13641986 0.66100001
-0.020173538 -0.13641986 0.66100001
-0.019071218 -0.13641986 0.66100001
-0.017968897 -0.13641986 0.66100001
-0.016866576 -0.13641986 0.66100001
-0.015764255 -0.13641986 0.66100001
-0.014661933 -0.13641986 0.66100001
-0.013559612 -0.13641986 0.66100001
-0.012457291 -0.13641986 0.66100001
-0.011354971 -0.13641986 0.66100001
-0.01026816 -0.13662626 0.66200006
-0.0091641722 -0.13662626 0.66200006
-0.0080601834 -0.13662626 0.66200006
-0.0069667022 -0.13683264 0.66300005
-0.0058698854 -0.13703902 0.66400003
-0.0047625615 -0.13703902 0.66400003
-0.0036607422 -0.1372454 0.66500002
-0.0025555878 -0.13745178 0.66600001
-0.001447098 -0.13765816 0.66700006
-0.0003347708 -0.13765816 0.66700006
0.00077872205 -0.13786456 0.66800004
0.0018927167 -0.13786456 0.66800004
0.0030112125 -0.13807094 0.66900003
0.0041268752 -0.13807094 0.66900003
0.0052503734 -0.13827732 0.67000002
0.0063677039 -0.13827732 0.67000002
0.0074850339 -0.13827732 0.67000002
0.0086023631 -0.13827732 0.67000002
0.0097342003 -0.1384837 0.671
0.010853197 -0.1384837 0.671
0.01199004 -0.13869008 0.67200005
0.013110704 -0.13869008 0.67200005
0.014252547 -0.13889647 0.67300004
0.015397726 -0.13910285 0.67400002
0.016546238 -0.13930923 0.67500001
0.01772427 -0.139722 0.67700005
0.018908968 -0.14013477 0.67900002
0.020070823 -0.14034115 0.68000001
0.021267198 -0.14075392 0.68200004
0.022470241 -0.14116669 0.68400002
0.023679959 -0.14157946 0.68600005
0.024896342 -0.14199223 0.68800002
0.026081543 -0.14219861 0.68900001
0.027270082 -0.142405 0.69000006
0.028420767 -0.142405 0.69000006
0.029614307 -0.14261138 0.69100004
0.030855706 -0.14302415 0.69300002
-0.1236606 -0.14985241 0.73200005
-0.12121914 -0.14985241 0.73200005
-0.11999843 -0.14985241 0.73200005
-0.1187777 -0.14985241 0.73200005
-0.11755697 -0.14985241 0.73200005
-0.11633625 -0.14985241 0.73200005
-0.11511553 -0.14985241 0.73200005
-0.1138948 -0.14985241 0.73200005
-0.112828 -0.15005712 0.73300004
-0.11175787 -0.15026183 0.73400003
-0.1106844 -0.15046655 0.73500001
-0.10975651 -0.15087599 0.73700005
-0.10852745 -0.15087599 0.73700005
-0.10744398 -0.1510807 0.73800004
-0.10606933 -0.15087599 0.73700005
-0.10484027 -0.15087599 0.73700005
-0.10347062 -0.15067127 0.73600006
-0.10196539 -0.15026183 0.73400003
-0.10046683 -0.14985241 0.73200005
-0.098839357 -0.14923824 0.72900003
-0.097221889 -0.14862409 0.72600001
-0.095746674 -0.14821467 0.72400004
-0.094147556 -0.14760052 0.72100002
-0.092816256 -0.1473958 0.72000003
-0.09123382 -0.14678165 0.71700001
-0.089535803 -0.14596279 0.71300006
-0.087727219 -0.1449392 0.708
-0.084280662 -0.14309676 0.69900006
-0.080894142 -0.14125432 0.69000006
-0.079281174 -0.14043544 0.68600005
-0.077795453 -0.13982129 0.68300003
-0.07654421 -0.13961658 0.68200004
-0.075296305 -0.13941187 0.68100005
-0.074160628 -0.13941187 0.68100005
-0.073132187 -0.13961658 0.68200004
-0.072100401 -0.13982129 0.68300003
-0.07116919 -0.14023073 0.68500006
-0.070231304 -0.14064017 0.68700004
-0.069186181 -0.14084488 0.68800002
-0.068236627 -0.14125432 0.69000006
-0.067183167 -0.14145903 0.69100004
-0.066030815 -0.14145903 0.69100004
-0.064878464 -0.14145903 0.69100004
-0.063726112 -0.14145903 0.69100004
-0.06248321 -0.14125432 0.69000006
-0.061243635 -0.14104959 0.68900001
-0.060007397 -0.14084488 0.68800002
-0.058774497 -0.14064017 0.68700004
-0.057544935 -0.14043544 0.68600005
-0.056318708 -0.14023073 0.68500006
-0.05509581 -0.140026 0.68400002
-0.053797372 -0.13961658 0.68200004
-0.052660029 -0.13961658 0.68200004
-0.051371593 -0.13920714 0.68000001
-0.050163709 -0.13900243 0.67900002
-0.048959158 -0.13879772 0.67800003
-0.047757946 -0.138593 0.67700005
-0.046491183 -0.13818356 0.67500001
-0.045298308 -0.13797885 0.67400002
-0.044108771 -0.13777414 0.67300004
-0.042922564 -0.13756943 0.67200005
-0.041739691 -0.1373647 0.671
-0.040560156 -0.13715999 0.67000002
-0.039383959 -0.13695526 0.66900003
-0.038211096 -0.13675055 0.66800004
-0.037041564 -0.13654584 0.66700006
-0.035929237 -0.13654584 0.66700006
-0.034764711 -0.13634111 0.66600001
-0.033603519 -0.1361364 0.66500002
-0.032445665 -0.13593169 0.66400003
-0.031338338 -0.13593169 0.66400003
-0.030185487 -0.13572697 0.66300005
-0.029079832 -0.13572697 0.66300005
-0.027931983 -0.13552226 0.66200006
-0.026827995 -0.13552226 0.66200006
-0.025724003 -0.13552226 0.66200006
-0.024620015 -0.13552226 0.66200006
-0.023516027 -0.13552226 0.66200006
-0.022412037 -0.13552226 0.66200006
-0.02130805 -0.13552226 0.66200006
-0.02020406 -0.13552226 0.66200006
-0.019100072 -0.13552226 0.66200006
-0.017996082 -0.13552226 0.66200006
-0.016892094 -0.13552226 0.66200006
-0.015764255 -0.13531753 0.66100001
-0.014661933 -0.13531753 0.66100001
-0.013559612 -0.13531753 0.66100001
-0.012457291 -0.13531753 0.66100001
-0.01137215 -0.13552226 0.66200006
-0.01026816 -0.13552226 0.66200006
-0.0091641722 -0.13552226 0.66200006
-0.0080601834 -0.13552226 0.66200006
-0.0069667022 -0.13572697 0.66300005
-0.0058698854 -0.13593169 0.66400003
-0.0047625615 -0.13593169 0.66400003
-0.0036607422 -0.1361364 0.66500002
-0.0025555878 -0.13634111 0.66600001
-0.001447098 -0.13654584 0.66700006
-0.0003347708 -0.13654584 0.66700006
0.00077872205 -0.13675055 0.66800004
0.0018927167 -0.13675055 0.66800004
0.0030112125 -0.13695526 0.66900003
0.0041268752 -0.13695526 0.66900003
0.0052503734 -0.13715999 0.67000002
0.0063677039 -0.13715999 0.67000002
0.0074850339 -0.13715999 0.67000002
0.0086023631 -0.13715999 0.67000002
0.0097342003 -0.1373647 0.671
0.010853197 -0.1373647 0.671
0.01199004 -0.13756943 0.67200005
0.013110704 -0.13756943 0.67200005
0.014273725 -0.13797885 0.67400002
0.01542057 -0.13818356 0.67500001
0.016570752 -0.13838829 0.67600006
0.017750449 -0.13879772 0.67800003
0.018908968 -0.13900243 0.67900002
0.020129856 -0.13961658 0.68200004
0.021298381 -0.13982129 0.68300003
0.022503095 -0.14023073 0.68500006
0.023714475 -0.14064017 0.68700004
0.024896342 -0.14084488 0.68800002
0.0261194 -0.14125432 0.69000006
0.027270082 -0.14125432 0.69000006
0.028461955 -0.14145903 0.69100004
0.029657163 -0.14166375 0.69200003
0.030855706 -0.14186846 0.69300002
-0.12138474 -0.14883474 0.73300004
-0.12016235 -0.14883474 0.73300004
-0.11893996 -0.14883474 0.73300004
-0.11771757 -0.14883474 0.73300004
-0.11649518 -0.14883474 0.73300004
-0.11527279 -0.14883474 0.73300004
-0.11405039 -0.14883474 0.73300004
-0.11298193 -0.14903778 0.73400003
-0.11191012 -0.14924082 0.73500001
-0.11083499 -0.14944388 0.73600006
-0.10975651 -0.14964692 0.73700005
-0.10867471 -0.14984998 0.73800004
-0.10744398 -0.14984998 0.73800004
-0.10621324 -0.14984998 0.73800004
-0.10498252 -0.14984998 0.73800004
-0.1036112 -0.14964692 0.73700005
-0.10210431 -0.14924082 0.73500001
-0.10060407 -0.14883474 0.73300004
-0.098974936 -0.14822558 0.73000002
-0.097355805 -0.14761645 0.72700006
-0.095746674 -0.14700729 0.72400004
-0.094147556 -0.14639814 0.72100002
-0.092687346 -0.14599206 0.71900004
-0.09097933 -0.14517985 0.71500003
-0.089284651 -0.14436765 0.71100003
-0.082163729 -0.14030668 0.69100004
-0.080425188 -0.13929144 0.68600005
-0.079050027 -0.13888533 0.68400002
-0.077681549 -0.13847925 0.68200004
-0.076319739 -0.13807315 0.68000001
-0.075185731 -0.13807315 0.68000001
-0.074160628 -0.1382762 0.68100005
-0.073132187 -0.13847925 0.68200004
-0.072100401 -0.13868229 0.68300003
-0.07116919 -0.13908839 0.68500006
-0.070231304 -0.13949449 0.68700004
-0.069186181 -0.13969754 0.68800002
-0.068236627 -0.14010364 0.69000006
-0.067085944 -0.14010364 0.69000006
-0.066030815 -0.14030668 0.69100004
-0.064972356 -0.14050972 0.69200003
-0.063726112 -0.14030668 0.69100004
-0.06248321 -0.14010364 0.69000006
-0.061332528 -0.14010364 0.69000006
-0.060007397 -0.13969754 0.68800002
-0.058774497 -0.13949449 0.68700004
-0.057544935 -0.13929144 0.68600005
-0.056318708 -0.13908839 0.68500006
-0.05509581 -0.13888533 0.68400002
-0.053876251 -0.13868229 0.68300003
-0.052660029 -0.13847925 0.68200004
-0.051447142 -0.1382762 0.68100005
-0.050237585 -0.13807315 0.68000001
-0.049031369 -0.1378701 0.67900002
-0.047828488 -0.13766704 0.67800003
-0.046560064 -0.13726096 0.67600006
-0.045365516 -0.1370579 0.67500001
-0.04417431 -0.13685486 0.67400002
-0.042922564 -0.13644876 0.67200005
-0.0418019 -0.13644876 0.67200005
-0.040560156 -0.13604265 0.67000002
-0.039442826 -0.13604265 0.67000002
-0.038268298 -0.13583961 0.66900003
-0.037041564 -0.13543352 0.66700006
-0.035929237 -0.13543352 0.66700006
-0.03481691 -0.13543352 0.66700006
-0.033654049 -0.13523047 0.66600001
-0.03249453 -0.13502741 0.66500002
-0.031338338 -0.13482437 0.66400003
-0.030231016 -0.13482437 0.66400003
-0.029079832 -0.13462132 0.66300005
-0.027974175 -0.13462132 0.66300005
-0.026827995 -0.13441828 0.66200006
-0.025724003 -0.13441828 0.66200006
-0.024620015 -0.13441828 0.66200006
-0.023516027 -0.13441828 0.66200006
-0.022412037 -0.13441828 0.66200006
-0.02130805 -0.13441828 0.66200006
-0.02020406 -0.13441828 0.66200006
-0.019100072 -0.13441828 0.66200006
-0.017996082 -0.13441828 0.66200006
-0.016892094 -0.13441828 0.66200006
-0.015788106 -0.13441828 0.66200006
-0.014684116 -0.13441828 0.66200006
-0.013580128 -0.13441828 0.66200006
-0.012476138 -0.13441828 0.66200006
-0.01137215 -0.13441828 0.66200006
-0.01026816 -0.13441828 0.66200006
-0.0091641722 -0.13441828 0.66200006
-0.0080723586 -0.13462132 0.66300005
-0.0069772098 -0.13482437 0.66400003
-0.0058698854 -0.13482437 0.66400003
-0.0047697341 -0.13502741 0.66500002
-0.003666247 -0.13523047 0.66600001
-0.0025555878 -0.13523047 0.66600001
-0.001447098 -0.13543352 0.66700006
-0.0003347708 -0.13543352 0.66700006
0.00077872205 -0.13563657 0.66800004
0.0018927167 -0.13563657 0.66800004
0.0030112125 -0.13583961 0.66900003
0.0041268752 -0.13583961 0.66900003
0.0052503734 -0.13604265 0.67000002
0.0063677039 -0.13604265 0.67000002
0.0074850339 -0.13604265 0.67000002
0.0086023631 -0.13604265 0.67000002
0.0097342003 -0.1362457 0.671
0.010853197 -0.1362457 0.671
0.01199004 -0.13644876 0.67200005
0.013130214 -0.13665181 0.67300004
0.014273725 -0.13685486 0.67400002
0.01542057 -0.1370579 0.67500001
0.016595265 -0.137464 0.67700005
0.017776629 -0.1378701 0.67900002
0.018936817 -0.13807315 0.68000001
0.020129856 -0.13847925 0.68200004
0.021329565 -0.13888533 0.68400002
0.022535946 -0.13929144 0.68600005
0.023714475 -0.13949449 0.68700004
0.024932528 -0.13990058 0.68900001
0.0261194 -0.14010364 0.69000006
0.027270082 -0.14010364 0.69000006
0.028461955 -0.14030668 0.69100004
0.029614307 -0.14030668 0.69100004
0.030855706 -0.14071278 0.69300002
-0.12155034 -0.14781371 0.73400003
-0.12032629 -0.14781371 0.73400003
-0.11910222 -0.14781371 0.73400003
-0.11787817 -0.14781371 0.73400003
-0.11665411 -0.14781371 0.73400003
-0.11543005 -0.14781371 0.73400003
-0.11420599 -0.14781371 0.73400003
-0.11313585 -0.1480151 0.73500001
-0.11191012 -0.1480151 0.73500001
-0.11098558 -0.14841786 0.73700005
-0.10990544 -0.14861923 0.73800004
-0.10867471 -0.14861923 0.73800004
-0.10758957 -0.14882062 0.73900002
-0.10621324 -0.14861923 0.73800004
-0.10498252 -0.14861923 0.73800004
-0.10375179 -0.14861923 0.73800004
-0.10238215 -0.14841786 0.73700005
-0.10087857 -0.1480151 0.73500001
-0.099246107 -0.14741096 0.73200005
-0.097623631 -0.14680681 0.72900003
-0.096011162 -0.14620265 0.72600001
-0.087355502 -0.14197366 0.70500004
-0.085446358 -0.14076538 0.69900006
-0.083557218 -0.13955709 0.69300002
-0.081925914 -0.13875157 0.68900001
-0.080425188 -0.13814743 0.68600005
-0.078818895 -0.1373419 0.68200004
-0.077681549 -0.1373419 0.68200004
-0.076319739 -0.13693912 0.68000001
-0.075185731 -0.13693912 0.68000001
-0.074160628 -0.13714053 0.68100005
-0.073132187 -0.1373419 0.68200004
-0.072100401 -0.13754328 0.68300003
-0.07116919 -0.13794605 0.68500006
-0.070231304 -0.1383488 0.68700004
-0.069286741 -0.13875157 0.68900001
-0.068236627 -0.13895296 0.69000006
-0.067183167 -0.13915433 0.69100004
-0.066030815 -0.13915433 0.69100004
-0.064878464 -0.13915433 0.69100004
-0.063726112 -0.13915433 0.69100004
-0.06248321 -0.13895296 0.69000006
-0.061332528 -0.13895296 0.69000006
-0.060007397 -0.13855018 0.68800002
-0.058774497 -0.1383488 0.68700004
-0.057544935 -0.13814743 0.68600005
-0.056318708 -0.13794605 0.68500006
-0.05509581 -0.13774465 0.68400002
-0.053876251 -0.13754328 0.68300003
-0.052660029 -0.1373419 0.68200004
-0.051447142 -0.13714053 0.68100005
-0.050237585 -0.13693912 0.68000001
-0.049031369 -0.13673775 0.67900002
-0.047828488 -0.13653637 0.67800003
-0.046628937 -0.136335 0.67700005
-0.045365516 -0.13593222 0.67500001
-0.04417431 -0.13573085 0.67400002
-0.042986438 -0.13552947 0.67300004
-0.0418019 -0.13532808 0.67200005
-0.040620696 -0.1351267 0.671
-0.039442826 -0.13492532 0.67000002
-0.038268298 -0.13472395 0.66900003
-0.0370971 -0.13452257 0.66800004
-0.035929237 -0.13432118 0.66700006
-0.03481691 -0.13432118 0.66700006
-0.033654049 -0.13411979 0.66600001
-0.032543391 -0.13411979 0.66600001
-0.031385534 -0.13391842 0.66500002
-0.030231016 -0.13371705 0.66400003
-0.029123692 -0.13371705 0.66400003
-0.027974175 -0.13351566 0.66300005
-0.02686852 -0.13351566 0.66300005
-0.025762862 -0.13351566 0.66300005
-0.024657205 -0.13351566 0.66300005
-0.02355155 -0.13351566 0.66300005
-0.022445893 -0.13351566 0.66300005
-0.02130805 -0.13331428 0.66200006
-0.02020406 -0.13331428 0.66200006
-0.019128924 -0.13351566 0.66300005
-0.018023266 -0.13351566 0.66300005
-0.016917611 -0.13351566 0.66300005
-0.015811954 -0.13351566 0.66300005
