ply
format ascii 1.0
comment PCL generated
element vertex 1335
property float x
property float y
property float z
element camera 0
property float view_px
property float view_py
property float view_pz
property float x_axisx
property float x_axisy
property float x_axisz
property float y_axisx
property float y_axisy
property float y_axisz
property float z_axisx
property float z_axisy
property float z_axisz
property float focal
property float scalex
property float scaley
property float centerx
property float centery
property int viewportx
property int viewporty
property float k1
property float k2
end_header
-0.017778607 -0.16333202 0.65400004
-0.016713476 -0.16358174 0.65500003
-0.015668858 -0.16408123 0.65700001
-0.014617572 -0.16458072 0.65900004
-0.013539099 -0.16483046 0.66000003
-0.012476138 -0.16532996 0.66200006
-0.011389328 -0.16557971 0.66300005
-0.010299182 -0.16582943 0.66400003
-0.0092057008 -0.16607918 0.66500002
-0.008108885 -0.16632892 0.66600001
-0.0070087332 -0.16657868 0.66700006
-0.0058964062 -0.16657868 0.66700006
-0.0047912518 -0.16682841 0.66800004
-0.0036772571 -0.16682841 0.66800004
-0.0025670994 -0.16707815 0.66900003
-0.001451437 -0.16707815 0.66900003
-0.00033577462 -0.16707815 0.66900003
0.0007810535 -0.1673279 0.67000002
0.0018983835 -0.1673279 0.67000002
0.0030157135 -0.1673279 0.67000002
0.0041330438 -0.1673279 0.67000002
0.00525821 -0.16757764 0.671
0.0063772076 -0.16757764 0.671
0.0075073778 -0.16782738 0.67200005
0.0086280424 -0.16782738 0.67200005
0.0097632147 -0.16807713 0.67300004
0.010901722 -0.16832687 0.67400002
0.012043566 -0.16857661 0.67500001
0.013169234 -0.16857661 0.67500001
0.014316081 -0.16882636 0.67600006
0.015466262 -0.1690761 0.67700005
0.01664429 -0.16957559 0.67900002
0.017776629 -0.16957559 0.67900002
0.018936817 -0.16982532 0.68000001
0.02010034 -0.17007507 0.68100005
0.021267198 -0.17032482 0.68200004
0.02240454 -0.17032482 0.68200004
0.023541883 -0.17032482 0.68200004
0.024715409 -0.17057456 0.68300003
-0.056118891 -0.16596249 0.66900003
-0.054838799 -0.16546634 0.66700006
-0.053565372 -0.16497019 0.66500002
-0.0523775 -0.16472211 0.66400003
-0.051115748 -0.16422597 0.66200006
-0.049785119 -0.16348174 0.65900004
-0.048538372 -0.16298558 0.65700001
-0.047226094 -0.16224135 0.65400004
-0.046064902 -0.16199328 0.65300006
-0.044838164 -0.16149713 0.65100002
-0.043685313 -0.16124906 0.65000004
-0.042535797 -0.16100098 0.64900005
-0.041325741 -0.16050482 0.64700001
-0.040246766 -0.16050482 0.64700001
-0.039107256 -0.16025676 0.64600003
-0.037971083 -0.16000868 0.64500004
-0.036895443 -0.16000868 0.64500004
-0.03576427 -0.15976061 0.64400005
-0.03463643 -0.15951252 0.64300001
-0.033564128 -0.15951252 0.64300001
-0.032491826 -0.15951252 0.64300001
-0.031419519 -0.15951252 0.64300001
-0.030347215 -0.15951252 0.64300001
-0.029274913 -0.15951252 0.64300001
-0.02820261 -0.15951252 0.64300001
-0.027130308 -0.15951252 0.64300001
-0.026058005 -0.15951252 0.64300001
-0.025024559 -0.15976061 0.64400005
-0.023987778 -0.16000868 0.64500004
-0.022947662 -0.16025676 0.64600003
-0.021904211 -0.16050482 0.64700001
-0.020889614 -0.16100098 0.64900005
-0.019837823 -0.16124906 0.65000004
-0.018782698 -0.16149713 0.65100002
-0.017751422 -0.16199328 0.65300006
-0.016713476 -0.16248943 0.65500003
-0.015668858 -0.16298558 0.65700001
-0.014617572 -0.16348174 0.65900004
-0.013539099 -0.1637298 0.66000003
-0.012476138 -0.16422597 0.66200006
-0.011389328 -0.16447404 0.66300005
-0.010299182 -0.16472211 0.66400003
-0.0092057008 -0.16497019 0.66500002
-0.0081210611 -0.16546634 0.66700006
-0.0070087332 -0.16546634 0.66700006
-0.0059052464 -0.16571441 0.66800004
-0.0047912518 -0.16571441 0.66800004
-0.0036827619 -0.16596249 0.66900003
-0.0025670994 -0.16596249 0.66900003
-0.0014536066 -0.16621056 0.67000002
-0.00033627651 -0.16621056 0.67000002
0.0007810535 -0.16621056 0.67000002
0.0018983835 -0.16621056 0.67000002
0.0030202144 -0.16645864 0.671
0.0041392124 -0.16645864 0.671
0.0052660466 -0.16670673 0.67200005
0.0063867122 -0.16670673 0.67200005
0.0075073778 -0.16670673 0.67200005
0.0086408816 -0.16695479 0.67300004
0.0097777219 -0.16720286 0.67400002
0.010901722 -0.16720286 0.67400002
0.012043566 -0.16745093 0.67500001
0.013188744 -0.16769902 0.67600006
0.014337258 -0.1679471 0.67700005
0.015489106 -0.16819517 0.67800003
0.01664429 -0.16844323 0.67900002
0.01780281 -0.16869131 0.68000001
0.018964665 -0.1689394 0.68100005
0.020129856 -0.16918747 0.68200004
0.021267198 -0.16918747 0.68200004
0.022437392 -0.16943555 0.68300003
0.023576401 -0.16943555 0.68300003
0.024715409 -0.16943555 0.68300003
-0.054756578 -0.16410761 0.66600001
-0.053484824 -0.16361479 0.66400003
-0.052219737 -0.16312198 0.66200006
-0.050884105 -0.16238275 0.65900004
-0.049558479 -0.16164352 0.65600002
-0.048316739 -0.16115072 0.65400004
-0.047081668 -0.1606579 0.65200001
-0.045853272 -0.16016509 0.65000004
-0.044700414 -0.15991868 0.64900005
-0.043483686 -0.15942585 0.64700001
-0.042339176 -0.15917945 0.64600003
-0.041197997 -0.15893304 0.64500004
-0.040060155 -0.15868664 0.64400005
-0.038925644 -0.15844022 0.64300001
-0.037853342 -0.15844022 0.64300001
-0.036781039 -0.15844022 0.64300001
-0.0356532 -0.15819381 0.64200002
-0.034582563 -0.15819381 0.64200002
-0.033511929 -0.15819381 0.64200002
-0.032390762 -0.15794741 0.64100003
-0.031321794 -0.15794741 0.64100003
-0.030252824 -0.15794741 0.64100003
-0.029183857 -0.15794741 0.64100003
-0.02815875 -0.15819381 0.64200002
-0.027088115 -0.15819381 0.64200002
-0.02601748 -0.15819381 0.64200002
-0.024985699 -0.15844022 0.64300001
-0.023913397 -0.15844022 0.64300001
-0.022912141 -0.15893304 0.64500004
-0.021870356 -0.15917945 0.64600003
-0.020825237 -0.15942585 0.64700001
-0.019807303 -0.15991868 0.64900005
-0.018782698 -0.16041149 0.65100002
-0.017751422 -0.16090432 0.65300006
-0.016713476 -0.16139711 0.65500003
-0.015668858 -0.16188993 0.65700001
-0.014617572 -0.16238275 0.65900004
-0.013539099 -0.16262916 0.66000003
-0.012476138 -0.16312198 0.66200006
-0.011389328 -0.16336839 0.66300005
-0.010299182 -0.16361479 0.66400003
-0.009219544 -0.16410761 0.66600001
-0.0081210611 -0.16435403 0.66700006
-0.0070087332 -0.16435403 0.66700006
-0.0059052464 -0.16460043 0.66800004
-0.004798424 -0.16484684 0.66900003
-0.0036827619 -0.16484684 0.66900003
-0.0025709367 -0.16509323 0.67000002
-0.0014536066 -0.16509323 0.67000002
-0.00033627651 -0.16509323 0.67000002
0.00078221923 -0.16533963 0.671
0.0019012168 -0.16533963 0.671
0.0030247157 -0.16558605 0.67200005
0.0041453815 -0.16558605 0.67200005
0.0052660466 -0.16558605 0.67200005
0.0063867122 -0.16558605 0.67200005
0.007518549 -0.16583246 0.67300004
0.0086537208 -0.16607887 0.67400002
0.0097922282 -0.16632527 0.67500001
0.010917896 -0.16632527 0.67500001
0.012061409 -0.16657169 0.67600006
0.013208254 -0.1668181 0.67700005
0.014358436 -0.1670645 0.67800003
0.015511951 -0.16731091 0.67900002
0.01664429 -0.16731091 0.67900002
0.017828992 -0.16780373 0.68100005
0.018992513 -0.16805014 0.68200004
0.020129856 -0.16805014 0.68200004
0.021267198 -0.16805014 0.68200004
0.022437392 -0.16829655 0.68300003
0.02361092 -0.16854294 0.68400002
0.024751596 -0.16854294 0.68400002
-0.056118891 -0.16373116 0.66900003
-0.054838799 -0.16324168 0.66700006
-0.053484824 -0.16250746 0.66400003
-0.052140851 -0.16177323 0.66100001
-0.050729673 -0.16079427 0.65700001
-0.049407385 -0.16006006 0.65400004
-0.048095103 -0.15932584 0.65100002
-0.046865039 -0.15883636 0.64900005
-0.04571218 -0.15859161 0.648
-0.04456266 -0.15834688 0.64700001
-0.043349274 -0.1578574 0.64500004
-0.042208094 -0.15761267 0.64400005
-0.041070249 -0.15736791 0.64300001
-0.039935742 -0.15712318 0.64200002
-0.038865108 -0.15712318 0.64200002
-0.037735604 -0.15687844 0.64100003
-0.036666635 -0.15687844 0.64100003
-0.03554213 -0.1566337 0.64000005
-0.034474831 -0.1566337 0.64000005
-0.033407532 -0.1566337 0.64000005
-0.032340232 -0.1566337 0.64000005
-0.031272929 -0.1566337 0.64000005
-0.030205628 -0.1566337 0.64000005
-0.029138329 -0.1566337 0.64000005
-0.028071029 -0.1566337 0.64000005
-0.027045922 -0.15687844 0.64100003
-0.025976954 -0.15687844 0.64100003
-0.024946842 -0.15712318 0.64200002
-0.023876207 -0.15712318 0.64200002
-0.022841094 -0.15736791 0.64300001
-0.021836502 -0.1578574 0.64500004
-0.020825237 -0.15834688 0.64700001
-0.019807303 -0.15883636 0.64900005
-0.018753847 -0.1590811 0.65000004
-0.017751422 -0.15981533 0.65300006
-0.016713476 -0.1603048 0.65500003
-0.015668858 -0.16079427 0.65700001
-0.014617572 -0.16128376 0.65900004
-0.013559612 -0.16177323 0.66100001
-0.012476138 -0.16201799 0.66200006
-0.011406506 -0.16250746 0.66400003
-0.010314693 -0.1627522 0.66500002
-0.009219544 -0.16299693 0.66600001
-0.0081210611 -0.16324168 0.66700006
-0.0070192413 -0.16348642 0.66800004
-0.0059140865 -0.16373116 0.66900003
-0.004798424 -0.16373116 0.66900003
-0.0036882667 -0.16397589 0.67000002
-0.0025709367 -0.16397589 0.67000002
-0.0014536066 -0.16397589 0.67000002
-0.00033677841 -0.16422063 0.671
0.00078221923 -0.16422063 0.671
0.0019040504 -0.16446538 0.67200005
0.0030247157 -0.16446538 0.67200005
0.0041453815 -0.16446538 0.67200005
0.0052660466 -0.16446538 0.67200005
0.0063962159 -0.16471012 0.67300004
0.0075297207 -0.16495486 0.67400002
0.0086537208 -0.16495486 0.67400002
0.0097922282 -0.16519959 0.67500001
0.010934072 -0.16544434 0.67600006
0.012079251 -0.16568908 0.67700005
0.013227764 -0.16593383 0.67800003
0.014379613 -0.16617857 0.67900002
0.015511951 -0.16617857 0.67900002
0.016668802 -0.16642331 0.68000001
0.017828992 -0.16666806 0.68100005
0.018992513 -0.16691279 0.68200004
0.020159371 -0.16715753 0.68300003
0.021298381 -0.16715753 0.68300003
0.022470241 -0.16740227 0.68400002
0.02361092 -0.16740227 0.68400002
0.024787784 -0.16764702 0.68500006
-0.057747867 -0.16407394 0.67500001
-0.056286659 -0.16310164 0.671
-0.050575249 -0.15921248 0.65500003
-0.049180746 -0.1582402 0.65100002
-0.047947347 -0.15775406 0.64900005
-0.046720613 -0.15726791 0.64700001
-0.045571096 -0.15702485 0.64600003
-0.044356037 -0.1565387 0.64400005
-0.043214854 -0.15629561 0.64300001
-0.042077012 -0.15605254 0.64200002
-0.041006375 -0.15605254 0.64200002
-0.039873537 -0.15580948 0.64100003
-0.038744032 -0.15556641 0.64000005
-0.037676733 -0.15556641 0.64000005
-0.036552232 -0.15532334 0.63900006
-0.035486598 -0.15532334 0.63900006
-0.034420963 -0.15532334 0.63900006
-0.03330313 -0.15508026 0.63800001
-0.032239165 -0.15508026 0.63800001
-0.031175202 -0.15508026 0.63800001
-0.030111235 -0.15508026 0.63800001
-0.0290928 -0.15532334 0.63900006
-0.028027168 -0.15532334 0.63900006
-0.02700373 -0.15556641 0.64000005
-0.025936428 -0.15556641 0.64000005
-0.024907984 -0.15580948 0.64100003
-0.023876207 -0.15605254 0.64200002
-0.022841094 -0.15629561 0.64300001
-0.021802647 -0.1565387 0.64400005
-0.020793051 -0.15702485 0.64600003
-0.019776782 -0.15751098 0.648
-0.018753847 -0.15799713 0.65000004
-0.017724236 -0.15848327 0.65200001
-0.016713476 -0.15921248 0.65500003
-0.015668858 -0.15969864 0.65700001
-0.014639752 -0.16042785 0.66000003
-0.013580128 -0.160914 0.66200006
-0.012494984 -0.16115707 0.66300005
-0.011406506 -0.16140014 0.66400003
-0.010330203 -0.16188629 0.66600001
-0.0092333881 -0.16212937 0.66700006
-0.0081332363 -0.16237244 0.66800004
-0.0070192413 -0.16237244 0.66800004
-0.0059140865 -0.16261551 0.66900003
-0.0048055965 -0.16285858 0.67000002
-0.0036882667 -0.16285858 0.67000002
-0.0025709367 -0.16285858 0.67000002
-0.0014557762 -0.16310164 0.671
-0.00033728033 -0.16334473 0.67200005
0.00078338507 -0.16334473 0.67200005
0.0019040504 -0.16334473 0.67200005
0.0030292168 -0.16358779 0.67300004
0.0041515501 -0.16358779 0.67300004
0.0052738828 -0.16358779 0.67300004
0.00640572 -0.16383086 0.67400002
0.0075297207 -0.16383086 0.67400002
0.0086665601 -0.16407394 0.67500001
0.0098067364 -0.16431703 0.67600006
0.010950246 -0.16456009 0.67700005
0.012079251 -0.16456009 0.67700005
0.013227764 -0.16480316 0.67800003
0.014379613 -0.16504623 0.67900002
0.015534797 -0.1652893 0.68000001
0.016668802 -0.1652893 0.68000001
0.017828992 -0.16553238 0.68100005
0.018992513 -0.16577545 0.68200004
0.020159371 -0.16601852 0.68300003
0.021329565 -0.16626158 0.68400002
0.022470241 -0.16626158 0.68400002
0.02364544 -0.16650468 0.68500006
0.024823969 -0.16674775 0.68600005
-0.058004525 -0.16367248 0.67800003
-0.056370549 -0.16222405 0.67200005
-0.054838799 -0.16101703 0.66700006
-0.053243171 -0.15956859 0.66100001
-0.050343603 -0.15739596 0.65200001
-0.048954107 -0.15643033 0.648
-0.047799587 -0.15618894 0.64700001
-0.046576191 -0.15570612 0.64500004
-0.045430012 -0.15546472 0.64400005
-0.044218283 -0.15498191 0.64200002
-0.043080438 -0.1547405 0.64100003
-0.041945934 -0.1544991 0.64000005
-0.040878631 -0.1544991 0.64000005
-0.039749127 -0.1542577 0.63900006
-0.038683496 -0.1542577 0.63900006
-0.037558991 -0.15401629 0.63800001
-0.036495026 -0.15401629 0.63800001
-0.035431061 -0.15401629 0.63800001
-0.034367096 -0.15401629 0.63800001
-0.033250932 -0.15377489 0.63700002
-0.032188635 -0.15377489 0.63700002
-0.031126337 -0.15377489 0.63700002
-0.030111235 -0.15401629 0.63800001
-0.029047269 -0.15401629 0.63800001
-0.027983306 -0.15401629 0.63800001
-0.026961535 -0.1542577 0.63900006
-0.025936428 -0.1544991 0.64000005
-0.024869127 -0.1544991 0.64000005
-0.023839017 -0.1547405 0.64100003
-0.022805572 -0.15498191 0.64200002
-0.021802647 -0.15546472 0.64400005
-0.020793051 -0.15594752 0.64600003
-0.019776782 -0.15643033 0.648
-0.018753847 -0.15691315 0.65000004
-0.017751422 -0.15763737 0.65300006
-0.016713476 -0.15812017 0.65500003
-0.015692709 -0.1588444 0.65800005
-0.014639752 -0.15932719 0.66000003
-0.013580128 -0.15981001 0.66200006
-0.012513829 -0.16029282 0.66400003
-0.011423685 -0.16053422 0.66500002
-0.010330203 -0.16077562 0.66600001
-0.0092333881 -0.16101703 0.66700006
-0.0081332363 -0.16125844 0.66800004
-0.007029749 -0.16149984 0.66900003
-0.0059140865 -0.16149984 0.66900003
-0.0048055965 -0.16174124 0.67000002
-0.0036882667 -0.16174124 0.67000002
-0.0025747737 -0.16198264 0.671
-0.0014579458 -0.16222405 0.67200005
-0.00033728033 -0.16222405 0.67200005
0.00078338507 -0.16222405 0.67200005
0.0019068838 -0.16246547 0.67300004
0.0030292168 -0.16246547 0.67300004
0.0041577187 -0.16270687 0.67400002
0.0052817189 -0.16270687 0.67400002
0.0064152237 -0.16294827 0.67500001
0.0075408923 -0.16294827 0.67500001
0.0086794002 -0.16318968 0.67600006
0.0098067364 -0.16318968 0.67600006
0.010950246 -0.16343108 0.67700005
0.012097092 -0.16367248 0.67800003
0.013247273 -0.16391389 0.67900002
0.014379613 -0.16391389 0.67900002
0.015534797 -0.16415529 0.68000001
0.016693316 -0.1643967 0.68100005
0.017855173 -0.1646381 0.68200004
0.018992513 -0.1646381 0.68200004
0.020159371 -0.1648795 0.68300003
0.021329565 -0.16512091 0.68400002
0.022470241 -0.16512091 0.68400002
0.02364544 -0.16536233 0.68500006
0.024823969 -0.16560373 0.68600005
0.025967982 -0.16560373 0.68600005
-0.059658516 -0.16398023 0.68400002
-0.058261186 -0.16326104 0.68100005
-0.056538317 -0.16158287 0.67400002
-0.050189178 -0.15582918 0.65000004
-0.048803013 -0.15487023 0.64600003
-0.047577951 -0.15439075 0.64400005
-0.046431769 -0.15415101 0.64300001
-0.04528892 -0.15391128 0.64200002
-0.044149406 -0.15367155 0.64100003
-0.043013234 -0.1534318 0.64000005
-0.041880392 -0.15319207 0.63900006
-0.040750884 -0.15295233 0.63800001
-0.039686922 -0.15295233 0.63800001
-0.038562417 -0.1527126 0.63700002
-0.037500121 -0.1527126 0.63700002
-0.036437824 -0.1527126 0.63700002
-0.035375524 -0.1527126 0.63700002
-0.034313228 -0.1527126 0.63700002
-0.033250932 -0.1527126 0.63700002
-0.032188635 -0.1527126 0.63700002
-0.031126337 -0.1527126 0.63700002
-0.030064039 -0.1527126 0.63700002
-0.029001743 -0.1527126 0.63700002
-0.027983306 -0.15295233 0.63800001
-0.026919341 -0.15295233 0.63800001
-0.025895903 -0.15319207 0.63900006
-0.024869127 -0.1534318 0.64000005
-0.023839017 -0.15367155 0.64100003
-0.022805572 -0.15391128 0.64200002
-0.021802647 -0.15439075 0.64400005
-0.020793051 -0.15487023 0.64600003
-0.019807303 -0.15558945 0.64900005
-0.018782698 -0.15606891 0.65100002
-0.017751422 -0.1565484 0.65300006
-0.016738992 -0.1572676 0.65600002
-0.015692709 -0.15774707 0.65800005
-0.014661933 -0.15846628 0.66100001
-0.013600641 -0.15894577 0.66300005
-0.012513829 -0.1591855 0.66400003
-0.011440863 -0.15966496 0.66600001
-0.010345714 -0.15990472 0.66700006
-0.0092472313 -0.16014445 0.66800004
-0.0081332363 -0.16014445 0.66800004
-0.007029749 -0.16038418 0.66900003
-0.0059229266 -0.16062392 0.67000002
-0.0048055965 -0.16062392 0.67000002
-0.0036937715 -0.16086365 0.671
-0.0025786113 -0.1611034 0.67200005
-0.0014579458 -0.1611034 0.67200005
-0.00033728033 -0.1611034 0.67200005
0.00078455079 -0.16134313 0.67300004
0.0019068838 -0.16134313 0.67300004
0.0030337179 -0.16158287 0.67400002
0.0041638874 -0.1618226 0.67500001
0.0052895555 -0.1618226 0.67500001
0.0064152237 -0.1618226 0.67500001
0.0075520645 -0.16206235 0.67600006
0.0086922394 -0.16230208 0.67700005
0.0098212427 -0.16230208 0.67700005
0.010966421 -0.16254182 0.67800003
0.012114935 -0.16278155 0.67900002
0.013247273 -0.16278155 0.67900002
0.01440079 -0.16302128 0.68000001
0.015557643 -0.16326104 0.68100005
0.016693316 -0.16326104 0.68100005
0.017855173 -0.16350077 0.68200004
0.019020362 -0.1637405 0.68300003
0.020188887 -0.16398023 0.68400002
0.021360749 -0.16421999 0.68500006
0.022503095 -0.16421999 0.68500006
0.023679959 -0.16445972 0.68600005
0.024823969 -0.16445972 0.68600005
0.025967982 -0.16445972 0.68600005
-0.061243635 -0.1640299 0.68900001
-0.059920177 -0.16355377 0.68700004
-0.058432288 -0.16260149 0.68300003
-0.0566222 -0.16069692 0.67500001
-0.050034747 -0.15426905 0.648
-0.048651922 -0.15331678 0.64400005
-0.047430191 -0.15284063 0.64200002
-0.046359558 -0.15284063 0.64200002
-0.045147836 -0.15236451 0.64000005
-0.044080533 -0.15236451 0.64000005
-0.042878814 -0.15188836 0.63800001
-0.041814849 -0.15188836 0.63800001
-0.040687013 -0.15165029 0.63700002
-0.039624717 -0.15165029 0.63700002
-0.038562417 -0.15165029 0.63700002
-0.037441254 -0.15141222 0.63600004
-0.036380623 -0.15141222 0.63600004
-0.035319991 -0.15141222 0.63600004
-0.034259364 -0.15141222 0.63600004
-0.033198733 -0.15141222 0.63600004
-0.032138105 -0.15141222 0.63600004
-0.031077474 -0.15141222 0.63600004
-0.030016843 -0.15141222 0.63600004
-0.029001743 -0.15165029 0.63700002
-0.027939444 -0.15165029 0.63700002
-0.026919341 -0.15188836 0.63800001
-0.025855375 -0.15188836 0.63800001
-0.024869127 -0.15236451 0.64000005
-0.023839017 -0.15260257 0.64100003
-0.022805572 -0.15284063 0.64200002
-0.021836502 -0.15355486 0.64500004
-0.020825237 -0.15403098 0.64700001
-0.019837823 -0.15474519 0.65000004
-0.01881155 -0.15522133 0.65200001
-0.017805791 -0.15593554 0.65500003
-0.016764509 -0.15641168 0.65700001
-0.015740406 -0.15712589 0.66000003
-0.014684116 -0.15760204 0.66200006
-0.013621154 -0.15807816 0.66400003
-0.012532676 -0.15831624 0.66500002
-0.011440863 -0.1585543 0.66600001
-0.010345714 -0.15879238 0.66700006
-0.0092472313 -0.15903045 0.66800004
-0.0081454115 -0.15926851 0.66900003
-0.0070402566 -0.15950659 0.67000002
-0.0059229266 -0.15950659 0.67000002
-0.0048127691 -0.15974465 0.671
-0.0036937715 -0.15974465 0.671
-0.0025786113 -0.15998273 0.67200005
-0.0014579458 -0.15998273 0.67200005
-0.00033778223 -0.1602208 0.67300004
0.00078455079 -0.1602208 0.67300004
0.0019097171 -0.16045886 0.67400002
0.0030382187 -0.16069692 0.67500001
0.0041638874 -0.16069692 0.67500001
0.0052895555 -0.16069692 0.67500001
0.0064247283 -0.16093501 0.67600006
0.0075632362 -0.16117308 0.67700005
0.0086922394 -0.16117308 0.67700005
0.0098357499 -0.16141114 0.67800003
0.010982595 -0.16164921 0.67900002
0.012114935 -0.16164921 0.67900002
0.013266783 -0.16188727 0.68000001
0.014421969 -0.16212535 0.68100005
0.015557643 -0.16212535 0.68100005
0.016717829 -0.16236342 0.68200004
0.017855173 -0.16236342 0.68200004
0.019020362 -0.16260149 0.68300003
0.020188887 -0.16283956 0.68400002
0.021360749 -0.16307764 0.68500006
0.022535946 -0.1633157 0.68600005
0.023679959 -0.1633157 0.68600005
0.024823969 -0.1633157 0.68600005
0.026005836 -0.16355377 0.68700004
-0.063910559 -0.1638265 0.69300002
-0.062573768 -0.1633537 0.69100004
-0.061421413 -0.1633537 0.69100004
-0.060181841 -0.1631173 0.69000006
-0.058774497 -0.1624081 0.68700004
-0.056873854 -0.16028048 0.67800003
-0.049880318 -0.15271561 0.64600003
-0.048500828 -0.15177001 0.64200002
-0.047356315 -0.1515336 0.64100003
-0.046215136 -0.15129721 0.64000005
-0.045077294 -0.1510608 0.63900006
-0.043942779 -0.1508244 0.63800001
-0.042878814 -0.1508244 0.63800001
-0.04174931 -0.15058799 0.63700002
-0.040687013 -0.15058799 0.63700002
-0.039562512 -0.1503516 0.63600004
-0.038501881 -0.1503516 0.63600004
-0.037382383 -0.15011521 0.63500005
-0.036323421 -0.15011521 0.63500005
-0.035264459 -0.15011521 0.63500005
-0.034205496 -0.15011521 0.63500005
-0.033146534 -0.15011521 0.63500005
-0.032087572 -0.15011521 0.63500005
-0.031028612 -0.15011521 0.63500005
-0.029969648 -0.15011521 0.63500005
-0.028956214 -0.1503516 0.63600004
-0.027939444 -0.15058799 0.63700002
-0.026877148 -0.15058799 0.63700002
-0.025855375 -0.1508244 0.63800001
-0.024869127 -0.15129721 0.64000005
-0.023839017 -0.1515336 0.64100003
-0.022841094 -0.1520064 0.64300001
-0.021870356 -0.15271561 0.64600003
-0.020889614 -0.15342483 0.64900005
-0.019868342 -0.15389763 0.65100002
-0.018869255 -0.15460683 0.65400004
-0.017860159 -0.15531603 0.65700001
-0.016815543 -0.15578884 0.65900004
-0.015764255 -0.15626164 0.66100001
-0.014706297 -0.15673445 0.66300005
-0.013641668 -0.15720725 0.66500002
-0.012551522 -0.15744364 0.66600001
-0.011458042 -0.15768006 0.66700006
-0.010361225 -0.15791646 0.66800004
-0.0092472313 -0.15791646 0.66800004
-0.0081454115 -0.15815286 0.66900003
-0.0070402566 -0.15838926 0.67000002
-0.0059229266 -0.15838926 0.67000002
-0.0048127691 -0.15862566 0.671
-0.0036992766 -0.15886207 0.67200005
-0.0025786113 -0.15886207 0.67200005
-0.0014579458 -0.15886207 0.67200005
-0.00033778223 -0.15909846 0.67300004
0.00078571652 -0.15933487 0.67400002
0.0019125505 -0.15957126 0.67500001
0.0030382187 -0.15957126 0.67500001
0.0041638874 -0.15957126 0.67500001
0.0052973921 -0.15980768 0.67600006
0.006434232 -0.16004407 0.67700005
0.0075632362 -0.16004407 0.67700005
0.0087050786 -0.16028048 0.67800003
0.0098502571 -0.16051687 0.67900002
0.010982595 -0.16051687 0.67900002
0.012132777 -0.16075328 0.68000001
0.013266783 -0.16075328 0.68000001
0.014421969 -0.16098969 0.68100005
0.015580487 -0.16122608 0.68200004
0.016717829 -0.16122608 0.68200004
0.017881352 -0.16146249 0.68300003
0.019020362 -0.16146249 0.68300003
0.020188887 -0.16169888 0.68400002
0.021391932 -0.16217169 0.68600005
0.022535946 -0.16217169 0.68600005
0.023679959 -0.16217169 0.68600005
0.024860157 -0.1624081 0.68700004
0.026005836 -0.1624081 0.68700004
-0.065254025 -0.16314028 0.69500005
-0.064002782 -0.16290554 0.69400001
-0.062754869 -0.16267081 0.69300002
-0.061599188 -0.16267081 0.69300002
-0.060269058 -0.16220134 0.69100004
-0.0589456 -0.16173187 0.68900001
-0.057041623 -0.15961926 0.68000001
-0.049725894 -0.15116884 0.64400005
-0.048425283 -0.15046464 0.64100003
-0.047282435 -0.1502299 0.64000005
-0.046142928 -0.14999518 0.63900006
-0.045006748 -0.14976043 0.63800001
-0.043942779 -0.14976043 0.63800001
-0.042811606 -0.1495257 0.63700002
-0.04174931 -0.1495257 0.63700002
-0.04062314 -0.14929096 0.63600004
-0.039500307 -0.14905623 0.63500005
-0.038441345 -0.14905623 0.63500005
-0.037382383 -0.14905623 0.63500005
-0.036266219 -0.14882149 0.634
-0.035208922 -0.14882149 0.634
-0.034151629 -0.14882149 0.634
-0.033094332 -0.14882149 0.634
-0.032037038 -0.14882149 0.634
-0.031028612 -0.14905623 0.63500005
-0.029969648 -0.14905623 0.63500005
-0.028910685 -0.14905623 0.63500005
-0.027895585 -0.14929096 0.63600004
-0.026877148 -0.1495257 0.63700002
-0.025855375 -0.14976043 0.63800001
-0.024869127 -0.1502299 0.64000005
-0.023839017 -0.15046464 0.64100003
-0.022876618 -0.15116884 0.64400005
-0.021904211 -0.15187304 0.64700001
-0.020889614 -0.15234251 0.64900005
-0.019898862 -0.15304671 0.65200001
-0.018898107 -0.15375091 0.65500003
-0.017887345 -0.15445513 0.65800005
-0.01684106 -0.15492459 0.66000003
-0.015788106 -0.15539406 0.66200006
-0.014728478 -0.15586352 0.66400003
-0.013662182 -0.15633298 0.66600001
-0.012570368 -0.15656772 0.66700006
-0.011458042 -0.15656772 0.66700006
-0.010361225 -0.15680246 0.66800004
-0.0092610735 -0.1570372 0.66900003
-0.0081575867 -0.15727192 0.67000002
-0.0070402566 -0.15727192 0.67000002
-0.0059229266 -0.15727192 0.67000002
-0.0048127691 -0.15750666 0.671
-0.0036992766 -0.1577414 0.67200005
-0.0025786113 -0.1577414 0.67200005
-0.0014601153 -0.15797614 0.67300004
-0.00033828412 -0.15821086 0.67400002
0.00078571652 -0.15821086 0.67400002
0.0019125505 -0.1584456 0.67500001
0.0030382187 -0.1584456 0.67500001
0.0041700564 -0.15868033 0.67600006
0.0053052283 -0.15891507 0.67700005
0.006434232 -0.15891507 0.67700005
0.0075744074 -0.1591498 0.67800003
0.0087179178 -0.15938453 0.67900002
0.0098502571 -0.15938453 0.67900002
0.01099877 -0.15961926 0.68000001
0.012132777 -0.15961926 0.68000001
0.013286293 -0.15985401 0.68100005
0.014443146 -0.16008873 0.68200004
0.015580487 -0.16008873 0.68200004
0.016717829 -0.16008873 0.68200004
0.017881352 -0.16032347 0.68300003
0.01904821 -0.16055821 0.68400002
0.020218404 -0.16079295 0.68500006
0.021391932 -0.16102768 0.68600005
0.022568796 -0.16126241 0.68700004
0.023714475 -0.16126241 0.68700004
0.024860157 -0.16126241 0.68700004
0.026043689 -0.16149715 0.68800002
-0.066604167 -0.16244739 0.69700003
-0.065347917 -0.16221432 0.69600004
-0.064095005 -0.16198125 0.69500005
-0.062845424 -0.16174819 0.69400001
-0.061688073 -0.16174819 0.69400001
-0.060443498 -0.16151512 0.69300002
-0.059031159 -0.16081592 0.69000006
-0.057125513 -0.15871833 0.68100005
-0.051273152 -0.15149327 0.65000004
-0.049571462 -0.14962873 0.64200002
-0.048349738 -0.14916261 0.64000005
-0.047208559 -0.14892954 0.63900006
-0.046070714 -0.14869645 0.63800001
-0.045006748 -0.14869645 0.63800001
-0.043873902 -0.1484634 0.63700002
-0.042744398 -0.14823033 0.63600004
-0.041683771 -0.14823033 0.63600004
-0.040559269 -0.14799726 0.63500005
-0.039500307 -0.14799726 0.63500005
-0.038380805 -0.14776419 0.634
-0.037323512 -0.14776419 0.634
-0.036266219 -0.14776419 0.634
-0.035153385 -0.14753112 0.63300002
-0.034097761 -0.14753112 0.63300002
-0.033042133 -0.14753112 0.63300002
-0.032037038 -0.14776419 0.634
-0.030979745 -0.14776419 0.634
-0.029922448 -0.14776419 0.634
-0.028910685 -0.14799726 0.63500005
-0.027851725 -0.14799726 0.63500005
-0.026834955 -0.14823033 0.63600004
-0.025855375 -0.14869645 0.63800001
-0.024869127 -0.14916261 0.64000005
-0.023876207 -0.14962873 0.64200002
-0.022912141 -0.15032794 0.64500004
-0.021938065 -0.15102713 0.648
-0.020953987 -0.15172632 0.65100002
-0.019959902 -0.15242553 0.65400004
-0.01895581 -0.15312472 0.65700001
-0.017941713 -0.15382393 0.66000003
-0.016892094 -0.15429007 0.66200006
-0.015835803 -0.15475619 0.66400003
-0.014772841 -0.15522233 0.66600001
-0.013682696 -0.1554554 0.66700006
-0.012589214 -0.15568846 0.66800004
-0.01147522 -0.15568846 0.66800004
-0.010376736 -0.15592152 0.66900003
-0.0092749167 -0.15615459 0.67000002
-0.0081575867 -0.15615459 0.67000002
-0.0070402566 -0.15615459 0.67000002
-0.0059317662 -0.15638766 0.671
-0.0048199417 -0.15662073 0.67200005
-0.0036992766 -0.15662073 0.67200005
-0.0025824483 -0.1568538 0.67300004
-0.0014601153 -0.1568538 0.67300004
-0.00033828412 -0.15708685 0.67400002
0.00078688224 -0.15731992 0.67500001
0.0019125505 -0.15731992 0.67500001
0.00304272 -0.157553 0.67600006
0.0041700564 -0.157553 0.67600006
0.0053052283 -0.15778606 0.67700005
0.0064437361 -0.15801913 0.67800003
0.0075744074 -0.15801913 0.67800003
0.0087179178 -0.15825219 0.67900002
0.0098502571 -0.15825219 0.67900002
0.01099877 -0.15848525 0.68000001
0.01215062 -0.15871833 0.68100005
0.013286293 -0.15871833 0.68100005
0.014443146 -0.15895139 0.68200004
0.015580487 -0.15895139 0.68200004
0.016742341 -0.15918446 0.68300003
0.017881352 -0.15918446 0.68300003
0.01904821 -0.15941752 0.68400002
0.020218404 -0.15965059 0.68500006
0.021391932 -0.15988366 0.68600005
0.022568796 -0.16011672 0.68700004
0.023714475 -0.16011672 0.68700004
0.024896342 -0.16034979 0.68800002
0.026043689 -0.16034979 0.68800002
0.027270082 -0.16081592 0.69000006
-0.066604167 -0.16128504 0.69700003
-0.065347917 -0.16105364 0.69600004
-0.064095005 -0.16082224 0.69500005
-0.062935986 -0.16082224 0.69500005
-0.061776966 -0.16082224 0.69500005
-0.060530715 -0.16059083 0.69400001
-0.051194273 -0.1501779 0.64900005
-0.049494252 -0.14832669 0.64100003
-0.048274193 -0.14786391 0.63900006
-0.047134675 -0.14763249 0.63800001
-0.046070714 -0.14763249 0.63800001
-0.044936206 -0.14740111 0.63700002
-0.043873902 -0.14740111 0.63700002
-0.042744398 -0.14716971 0.63600004
-0.041618232 -0.14693831 0.63500005
-0.040559269 -0.14693831 0.63500005
-0.039438099 -0.14670689 0.634
-0.038380805 -0.14670689 0.634
-0.037264641 -0.14647551 0.63300002
-0.036209017 -0.14647551 0.63300002
-0.035153385 -0.14647551 0.63300002
-0.034097761 -0.14647551 0.63300002
-0.033042133 -0.14647551 0.63300002
-0.031986509 -0.14647551 0.63300002
-0.030930882 -0.14647551 0.63300002
-0.029922448 -0.14670689 0.634
-0.028865155 -0.14670689 0.634
-0.027851725 -0.14693831 0.63500005
-0.026834955 -0.14716971 0.63600004
-0.025855375 -0.14763249 0.63800001
-0.024869127 -0.14809531 0.64000005
-0.023913397 -0.1487895 0.64300001
-0.022912141 -0.1492523 0.64500004
-0.020986175 -0.15087208 0.65200001
-0.019990422 -0.15156628 0.65500003
-0.019013515 -0.15249188 0.65900004
-0.017996082 -0.15318608 0.66200006
-0.016943127 -0.15364887 0.66400003
-0.015883502 -0.15411167 0.66600001
-0.014795023 -0.15434307 0.66700006
-0.01370321 -0.15457447 0.66800004
-0.012589214 -0.15457447 0.66800004
-0.011492399 -0.15480587 0.66900003
-0.010392247 -0.15503727 0.67000002
-0.0092749167 -0.15503727 0.67000002
-0.0081575867 -0.15503727 0.67000002
-0.0070507643 -0.15526865 0.671
-0.0059317662 -0.15526865 0.671
-0.0048199417 -0.15550007 0.67200005
-0.0036992766 -0.15550007 0.67200005
-0.0025824483 -0.15573147 0.67300004
-0.0014601153 -0.15573147 0.67300004
-0.00033828412 -0.15596285 0.67400002
0.00078688224 -0.15619425 0.67500001
0.0019125505 -0.15619425 0.67500001
0.00304272 -0.15642567 0.67600006
0.004176225 -0.15665707 0.67700005
0.0053130644 -0.15688846 0.67800003
0.0064437361 -0.15688846 0.67800003
0.0075855791 -0.15711986 0.67900002
0.0087179178 -0.15711986 0.67900002
0.0098647634 -0.15735126 0.68000001
0.011014945 -0.15758266 0.68100005
0.01215062 -0.15758266 0.68100005
0.013305804 -0.15781406 0.68200004
0.014443146 -0.15781406 0.68200004
0.015603333 -0.15804546 0.68300003
0.016742341 -0.15804546 0.68300003
0.017907532 -0.15827684 0.68400002
0.01904821 -0.15827684 0.68400002
0.020218404 -0.15850826 0.68500006
0.021391932 -0.15873966 0.68600005
0.022568796 -0.15897106 0.68700004
0.023748994 -0.15920244 0.68800002
0.024896342 -0.15920244 0.68800002
0.026081543 -0.15943384 0.68900001
0.027270082 -0.15966526 0.69000006
-0.066604167 -0.16012268 0.69700003
-0.06544181 -0.16012268 0.69700003
-0.064187229 -0.15989295 0.69600004
-0.062935986 -0.15966322 0.69500005
-0.061776966 -0.15966322 0.69500005
-0.060617939 -0.15966322 0.69500005
-0.059202261 -0.15897402 0.69200003
-0.049494252 -0.14725773 0.64100003
-0.048274193 -0.14679827 0.63900006
-0.047134675 -0.14656852 0.63800001
-0.045998503 -0.14633881 0.63700002
-0.044936206 -0.14633881 0.63700002
-0.043805029 -0.14610907 0.63600004
-0.04267719 -0.14587934 0.63500005
-0.041618232 -0.14587934 0.63500005
-0.040495392 -0.1456496 0.634
-0.039438099 -0.1456496 0.634
-0.038320269 -0.14541988 0.63300002
-0.037264641 -0.14541988 0.63300002
-0.036209017 -0.14541988 0.63300002
-0.035153385 -0.14541988 0.63300002
-0.034097761 -0.14541988 0.63300002
-0.033042133 -0.14541988 0.63300002
-0.031986509 -0.14541988 0.63300002
-0.030930882 -0.14541988 0.63300002
-0.029875252 -0.14541988 0.63300002
-0.028865155 -0.1456496 0.634
-0.027851725 -0.14587934 0.63500005
-0.026834955 -0.14610907 0.63600004
-0.025855375 -0.14656852 0.63800001
-0.024907984 -0.14725773 0.64100003
-0.023950588 -0.14794692 0.64400005
-0.022983184 -0.14863612 0.64700001
-0.022005778 -0.14932531 0.65000004
-0.02105055 -0.15024424 0.65400004
-0.020051461 -0.15093341 0.65700001
-0.019071218 -0.15185235 0.66100001
-0.018050451 -0.15254155 0.66400003
-0.016968643 -0.15277128 0.66500002
-0.015907351 -0.15323074 0.66700006
-0.014795023 -0.15323074 0.66700006
-0.01370321 -0.15346047 0.66800004
-0.012608061 -0.1536902 0.66900003
-0.011509577 -0.15391994 0.67000002
-0.010392247 -0.15391994 0.67000002
-0.0092749167 -0.15391994 0.67000002
-0.0081575867 -0.15391994 0.67000002
-0.0070507643 -0.15414965 0.671
-0.0059317662 -0.15414965 0.671
-0.0048199417 -0.1543794 0.67200005
-0.0036992766 -0.1543794 0.67200005
-0.0025824483 -0.15460913 0.67300004
-0.0014622848 -0.15483886 0.67400002
-0.00033828412 -0.15483886 0.67400002
0.00078688224 -0.15506859 0.67500001
0.0019125505 -0.15506859 0.67500001
0.00304272 -0.15529832 0.67600006
0.004176225 -0.15552805 0.67700005
0.0053130644 -0.15575778 0.67800003
0.0064532398 -0.15598752 0.67900002
0.0075855791 -0.15598752 0.67900002
0.0087307571 -0.15621723 0.68000001
0.0098647634 -0.15621723 0.68000001
0.011014945 -0.15644698 0.68100005
0.012168462 -0.15667671 0.68200004
0.013305804 -0.15667671 0.68200004
0.014443146 -0.15667671 0.68200004
0.015603333 -0.15690644 0.68300003
0.016766855 -0.15713617 0.68400002
0.017907532 -0.15713617 0.68400002
0.019076059 -0.1573659 0.68500006
0.020247919 -0.15759563 0.68600005
0.021391932 -0.15759563 0.68600005
0.022568796 -0.15782537 0.68700004
0.023748994 -0.1580551 0.68800002
0.024932528 -0.15828483 0.68900001
0.026081543 -0.15828483 0.68900001
0.027270082 -0.15851456 0.69000006
-0.066604167 -0.15896033 0.69700003
-0.065347917 -0.15873227 0.69600004
-0.064187229 -0.15873227 0.69600004
-0.06302654 -0.15873227 0.69600004
-0.061865851 -0.15873227 0.69600004
-0.060617939 -0.1585042 0.69500005
-0.059287813 -0.15804806 0.69300002
-0.049571462 -0.14641683 0.64200002
-0.04819864 -0.14550456 0.63800001
-0.047134675 -0.14550456 0.63800001
-0.045998503 -0.1452765 0.63700002
-0.044936206 -0.1452765 0.63700002
-0.043805029 -0.14504845 0.63600004
-0.04267719 -0.14482039 0.63500005
-0.041618232 -0.14482039 0.63500005
-0.040495392 -0.14459231 0.634
-0.039375894 -0.14436425 0.63300002
-0.038320269 -0.14436425 0.63300002
-0.037264641 -0.14436425 0.63300002
-0.036151815 -0.14413619 0.63200003
-0.035097852 -0.14413619 0.63200003
-0.034043893 -0.14413619 0.63200003
-0.032989934 -0.14413619 0.63200003
-0.031986509 -0.14436425 0.63300002
-0.030930882 -0.14436425 0.63300002
-0.029875252 -0.14436425 0.63300002
-0.028865155 -0.14459231 0.634
-0.027851725 -0.14482039 0.63500005
-0.026834955 -0.14504845 0.63600004
-0.025855375 -0.14550456 0.63800001
-0.024946842 -0.14641683 0.64200002
-0.023987778 -0.14710101 0.64500004
-0.023054231 -0.14801328 0.64900005
-0.022073487 -0.14869747 0.65200001
-0.021114925 -0.14960971 0.65600002
-0.020143019 -0.15052196 0.66000003
-0.019128924 -0.15120617 0.66300005
-0.018077634 -0.15166229 0.66500002
-0.017019678 -0.15211843 0.66700006
-0.0159312 -0.15234648 0.66800004
-0.014817204 -0.15234648 0.66800004
-0.013723724 -0.15257454 0.66900003
-0.012626906 -0.1528026 0.67000002
-0.011509577 -0.1528026 0.67000002
-0.010392247 -0.1528026 0.67000002
-0.0092749167 -0.1528026 0.67000002
-0.0081697619 -0.15303066 0.671
-0.0070507643 -0.15303066 0.671
-0.0059317662 -0.15303066 0.671
-0.0048199417 -0.15325874 0.67200005
-0.0036992766 -0.15325874 0.67200005
-0.0025824483 -0.1534868 0.67300004
-0.0014622848 -0.15371487 0.67400002
-0.00033828412 -0.15371487 0.67400002
0.00078688224 -0.15394293 0.67500001
0.0019125505 -0.15394293 0.67500001
0.00304272 -0.15417099 0.67600006
0.004176225 -0.15439905 0.67700005
0.0053130644 -0.15462711 0.67800003
0.0064532398 -0.15485518 0.67900002
0.0075855791 -0.15485518 0.67900002
0.0087307571 -0.15508324 0.68000001
0.0098792715 -0.15531132 0.68100005
0.011014945 -0.15531132 0.68100005
0.012168462 -0.15553938 0.68200004
0.013305804 -0.15553938 0.68200004
0.014464323 -0.15576744 0.68300003
0.015603333 -0.15576744 0.68300003
0.016766855 -0.15599549 0.68400002
0.017933715 -0.15622357 0.68500006
0.019076059 -0.15622357 0.68500006
0.020247919 -0.15645163 0.68600005
0.021423116 -0.15667969 0.68700004
0.022601647 -0.15690775 0.68800002
0.023783512 -0.15713581 0.68900001
0.024968715 -0.15736389 0.69000006
0.0261194 -0.15736389 0.69000006
0.027309604 -0.15759194 0.69100004
-0.067766517 -0.15779796 0.69700003
-0.066604167 -0.15779796 0.69700003
-0.06544181 -0.15779796 0.69700003
-0.064187229 -0.15757157 0.69600004
-0.06302654 -0.15757157 0.69600004
-0.061865851 -0.15757157 0.69600004
-0.060617939 -0.15734518 0.69500005
-0.059287813 -0.15689237 0.69300002
-0.053323723 -0.14987411 0.66200006
-0.049571462 -0.14534618 0.64200002
-0.04819864 -0.14444061 0.63800001
-0.047060799 -0.14421421 0.63700002
-0.045998503 -0.14421421 0.63700002
-0.044936206 -0.14421421 0.63700002
-0.043736152 -0.14376143 0.63500005
-0.04267719 -0.14376143 0.63500005
-0.041552685 -0.14353502 0.634
-0.040495392 -0.14353502 0.634
-0.039375894 -0.14330862 0.63300002
-0.038320269 -0.14330862 0.63300002
-0.037205774 -0.14308223 0.63200003
-0.036151815 -0.14308223 0.63200003
-0.035097852 -0.14308223 0.63200003
-0.034043893 -0.14308223 0.63200003
-0.033042133 -0.14330862 0.63300002
-0.031935979 -0.14308223 0.63200003
-0.030930882 -0.14330862 0.63300002
-0.029875252 -0.14330862 0.63300002
-0.028865155 -0.14353502 0.634
-0.027851725 -0.14376143 0.63500005
-0.026834955 -0.14398782 0.63600004
-0.025936428 -0.14489339 0.64000005
-0.024985699 -0.14557257 0.64300001
-0.024062159 -0.14647816 0.64700001
-0.023125276 -0.14738375 0.65100002
-0.022175051 -0.14828934 0.65500003
-0.0211793 -0.14896853 0.65800005
-0.020173538 -0.14964771 0.66100001
-0.019157775 -0.15032689 0.66400003
-0.018132005 -0.15100609 0.66700006
-0.017045194 -0.15123248 0.66800004
-0.015955048 -0.15145887 0.66900003
-0.014839386 -0.15145887 0.66900003
-0.013744237 -0.15168527 0.67000002
-0.012626906 -0.15168527 0.67000002
-0.011509577 -0.15168527 0.67000002
-0.010392247 -0.15168527 0.67000002
-0.0092887599 -0.15191166 0.671
-0.0081697619 -0.15191166 0.671
-0.0070507643 -0.15191166 0.671
-0.0059406068 -0.15213807 0.67200005
-0.0048199417 -0.15213807 0.67200005
-0.0037047814 -0.15236446 0.67300004
-0.0025824483 -0.15236446 0.67300004
-0.0014622848 -0.15259086 0.67400002
-0.00033828412 -0.15259086 0.67400002
0.00078688224 -0.15281725 0.67500001
0.001915384 -0.15304366 0.67600006
0.00304272 -0.15304366 0.67600006
0.004176225 -0.15327005 0.67700005
0.0053130644 -0.15349644 0.67800003
0.0064532398 -0.15372284 0.67900002
0.0075855791 -0.15372284 0.67900002
0.0087307571 -0.15394923 0.68000001
0.0098792715 -0.15417564 0.68100005
0.011031119 -0.15440203 0.68200004
0.012168462 -0.15440203 0.68200004
0.013305804 -0.15440203 0.68200004
0.014464323 -0.15462843 0.68300003
0.015626177 -0.15485482 0.68400002
0.016766855 -0.15485482 0.68400002
0.017933715 -0.15508121 0.68500006
0.019103907 -0.15530761 0.68600005
0.020247919 -0.15530761 0.68600005
0.021454299 -0.15576039 0.68800002
0.022634499 -0.15598679 0.68900001
0.023818033 -0.15621319 0.69000006
0.024968715 -0.15621319 0.69000006
0.026157252 -0.15643959 0.69100004
0.027349124 -0.15666598 0.69200003
0.028544335 -0.15689237 0.69300002
-0.067766517 -0.15663561 0.69700003
-0.066604167 -0.15663561 0.69700003
-0.06544181 -0.15663561 0.69700003
-0.064187229 -0.15641089 0.69600004
-0.06302654 -0.15641089 0.69600004
-0.061865851 -0.15641089 0.69600004
-0.060617939 -0.15618616 0.69500005
-0.059373364 -0.15596142 0.69400001
-0.049494252 -0.14405084 0.64100003
-0.048123095 -0.14315191 0.63700002
-0.047060799 -0.14315191 0.63700002
-0.045926291 -0.14292718 0.63600004
-0.044865664 -0.14292718 0.63600004
-0.043736152 -0.14270246 0.63500005
-0.04267719 -0.14270246 0.63500005
-0.041552685 -0.14247772 0.634
-0.040431522 -0.142253 0.63300002
-0.039375894 -0.142253 0.63300002
-0.038320269 -0.142253 0.63300002
-0.037205774 -0.14202827 0.63200003
-0.036151815 -0.14202827 0.63200003
-0.035097852 -0.14202827 0.63200003
-0.034043893 -0.14202827 0.63200003
-0.032989934 -0.14202827 0.63200003
-0.031986509 -0.142253 0.63300002
-0.030930882 -0.142253 0.63300002
-0.029875252 -0.142253 0.63300002
-0.028910685 -0.14270246 0.63500005
-0.027895585 -0.14292718 0.63600004
-0.026919341 -0.14337663 0.63800001
-0.02601748 -0.14427556 0.64200002
-0.025102274 -0.14517447 0.64600003
-0.02413654 -0.14584866 0.64900005
-0.023196323 -0.14674757 0.65300006
-0.02224276 -0.14764647 0.65700001
-0.021243675 -0.14832066 0.66000003
-0.020234579 -0.14899485 0.66300005
-0.019215479 -0.14966904 0.66600001
-0.018159188 -0.1501185 0.66800004
-0.017070711 -0.15034322 0.66900003
-0.015955048 -0.15034322 0.66900003
-0.014861567 -0.15056795 0.67000002
-0.013744237 -0.15056795 0.67000002
-0.012626906 -0.15056795 0.67000002
-0.011509577 -0.15056795 0.67000002
-0.010407757 -0.15079267 0.671
-0.0092887599 -0.15079267 0.671
-0.0081697619 -0.15079267 0.671
-0.0070612724 -0.15101741 0.67200005
-0.0059406068 -0.15101741 0.67200005
-0.0048199417 -0.15101741 0.67200005
-0.0037047814 -0.15124214 0.67300004
-0.0025824483 -0.15124214 0.67300004
-0.0014622848 -0.15146686 0.67400002
-0.00033828412 -0.15146686 0.67400002
0.00078688224 -0.15169159 0.67500001
0.001915384 -0.15191633 0.67600006
0.0030472211 -0.15214105 0.67700005
0.004176225 -0.15214105 0.67700005
0.0053130644 -0.15236577 0.67800003
0.0064532398 -0.1525905 0.67900002
0.0075855791 -0.1525905 0.67900002
0.0087307571 -0.15281522 0.68000001
0.0098792715 -0.15303996 0.68100005
0.011031119 -0.15326469 0.68200004
0.012168462 -0.15326469 0.68200004
0.013305804 -0.15326469 0.68200004
0.014464323 -0.15348941 0.68300003
0.015626177 -0.15371414 0.68400002
0.016791368 -0.15393887 0.68500006
0.017933715 -0.15393887 0.68500006
0.019103907 -0.1541636 0.68600005
0.020277435 -0.15438832 0.68700004
0.021454299 -0.15461306 0.68800002
0.02266735 -0.15506253 0.69000006
0.023852551 -0.15528725 0.69100004
0.025041088 -0.15551198 0.69200003
0.02623296 -0.1557367 0.69300002
0.027428167 -0.15596142 0.69400001
0.028626714 -0.15618616 0.69500005
-0.068829983 -0.15525019 0.69600004
-0.067669295 -0.15525019 0.69600004
-0.066508606 -0.15525019 0.69600004
-0.065347917 -0.15525019 0.69600004
-0.064187229 -0.15525019 0.69600004
-0.062935986 -0.15502714 0.69500005
-0.061865851 -0.15525019 0.69600004
-0.060617939 -0.15502714 0.69500005
-0.059458919 -0.15502714 0.69500005
-0.057544935 -0.15301959 0.68600005
-0.048123095 -0.14208961 0.63700002
-0.047060799 -0.14208961 0.63700002
-0.04585408 -0.14164349 0.63500005
-0.044865664 -0.14186655 0.63600004
-0.043736152 -0.14164349 0.63500005
-0.042609982 -0.14142042 0.634
-0.041487146 -0.14119737 0.63300002
-0.040431522 -0.14119737 0.63300002
-0.039375894 -0.14119737 0.63300002
-0.03825973 -0.14097431 0.63200003
-0.037205774 -0.14097431 0.63200003
-0.036151815 -0.14097431 0.63200003
-0.035097852 -0.14097431 0.63200003
-0.034043893 -0.14097431 0.63200003
-0.032989934 -0.14097431 0.63200003
-0.031986509 -0.14119737 0.63300002
-0.030930882 -0.14119737 0.63300002
-0.029969648 -0.14164349 0.63500005
-0.028956214 -0.14186655 0.63600004
-0.027983306 -0.14231268 0.63800001
-0.02700373 -0.1427588 0.64000005
-0.026098533 -0.14365104 0.64400005
-0.02517999 -0.14454328 0.648
-0.02424811 -0.14543551 0.65200001
-0.023302888 -0.14632776 0.65600002
-0.022310473 -0.14699695 0.65900004
-0.02130805 -0.14766614 0.66200006
-0.020265099 -0.14811225 0.66400003
-0.019244332 -0.14878143 0.66700006
-0.018186372 -0.14922756 0.66900003
-0.017096227 -0.14945062 0.67000002
-0.015978897 -0.14945062 0.67000002
-0.014861567 -0.14945062 0.67000002
-0.013744237 -0.14945062 0.67000002
-0.012626906 -0.14945062 0.67000002
-0.011526755 -0.14967367 0.671
-0.010407757 -0.14967367 0.671
-0.0092887599 -0.14967367 0.671
-0.0081697619 -0.14967367 0.671
-0.0070612724 -0.14989674 0.67200005
-0.0059406068 -0.14989674 0.67200005
-0.0048199417 -0.14989674 0.67200005
-0.0037047814 -0.1501198 0.67300004
-0.0025824483 -0.1501198 0.67300004
-0.0014622848 -0.15034285 0.67400002
-0.00033878602 -0.15056591 0.67500001
0.00078688224 -0.15056591 0.67500001
0.001915384 -0.15078898 0.67600006
0.0030472211 -0.15101205 0.67700005
0.0041823937 -0.1512351 0.67800003
0.0053209011 -0.15145816 0.67900002
0.0064532398 -0.15145816 0.67900002
0.0075967507 -0.15168121 0.68000001
0.0087307571 -0.15168121 0.68000001
0.0098792715 -0.15190428 0.68100005
0.011031119 -0.15212734 0.68200004
0.012168462 -0.15212734 0.68200004
0.013325313 -0.1523504 0.68300003
0.014464323 -0.1523504 0.68300003
0.015626177 -0.15257347 0.68400002
0.016791368 -0.15279654 0.68500006
0.017959895 -0.15301959 0.68600005
0.019131755 -0.15324265 0.68700004
0.02030695 -0.1534657 0.68800002
0.021516668 -0.15391183 0.69000006
0.022700202 -0.15413488 0.69100004
0.02388707 -0.15435795 0.69200003
0.025077274 -0.15458101 0.69300002
0.026270814 -0.15480407 0.69400001
0.02746769 -0.15502714 0.69500005
0.028667903 -0.15525019 0.69600004
-0.068829983 -0.15408951 0.69600004
-0.067669295 -0.15408951 0.69600004
-0.066508606 -0.15408951 0.69600004
-0.065347917 -0.15408951 0.69600004
-0.064187229 -0.15408951 0.69600004
-0.062935986 -0.15386812 0.69500005
-0.061776966 -0.15386812 0.69500005
-0.060617939 -0.15386812 0.69500005
-0.059287813 -0.15342532 0.69300002
-0.057377163 -0.15143278 0.68400002
-0.04804755 -0.14080593 0.63600004
-0.046986923 -0.14080593 0.63600004
-0.04585408 -0.14058454 0.63500005
-0.044795118 -0.14058454 0.63500005
-0.043667275 -0.14036314 0.634
-0.042609982 -0.14036314 0.634
-0.041487146 -0.14014174 0.63300002
-0.040431522 -0.14014174 0.63300002
-0.039375894 -0.14014174 0.63300002
-0.03825973 -0.13992035 0.63200003
-0.037205774 -0.13992035 0.63200003
-0.036151815 -0.13992035 0.63200003
-0.035097852 -0.13992035 0.63200003
-0.034043893 -0.13992035 0.63200003
-0.033042133 -0.14014174 0.63300002
-0.031986509 -0.14014174 0.63300002
-0.030979745 -0.14036314 0.634
-0.029969648 -0.14058454 0.63500005
-0.029001743 -0.14102732 0.63700002
-0.028027168 -0.14147012 0.63900006
-0.027088115 -0.14213428 0.64200002
-0.026179582 -0.14301986 0.64600003
-0.025257707 -0.14390543 0.65000004
-0.024322491 -0.14479101 0.65400004
-0.023373935 -0.14567658 0.65800005
-0.022344327 -0.14611936 0.66000003
-0.021340236 -0.14678355 0.66300005
-0.020326138 -0.14744772 0.66600001
-0.019244332 -0.14766912 0.66700006
-0.018186372 -0.14811189 0.66900003
-0.017096227 -0.14833328 0.67000002
-0.015978897 -0.14833328 0.67000002
-0.014861567 -0.14833328 0.67000002
-0.01376475 -0.14855468 0.671
-0.012645752 -0.14855468 0.671
-0.011526755 -0.14855468 0.671
-0.010407757 -0.14855468 0.671
-0.009302604 -0.14877608 0.67200005
-0.008181938 -0.14877608 0.67200005
-0.0070612724 -0.14877608 0.67200005
-0.0059406068 -0.14877608 0.67200005
-0.0048199417 -0.14877608 0.67200005
-0.0037047814 -0.14899747 0.67300004
-0.0025862856 -0.14921886 0.67400002
-0.0014622848 -0.14921886 0.67400002
-0.00033878602 -0.14944024 0.67500001
0.00078688224 -0.14944024 0.67500001
0.001915384 -0.14966166 0.67600006
0.0030472211 -0.14988305 0.67700005
0.0041823937 -0.15010443 0.67800003
0.0053209011 -0.15032582 0.67900002
0.0064532398 -0.15032582 0.67900002
0.0075967507 -0.15054722 0.68000001
0.0087435963 -0.15076862 0.68100005
0.0098937778 -0.15099001 0.68200004
0.011031119 -0.15099001 0.68200004
0.012168462 -0.15099001 0.68200004
0.013325313 -0.1512114 0.68300003
0.014485501 -0.15143278 0.68400002
0.015649024 -0.15165418 0.68500006
0.016815882 -0.15187559 0.68600005
0.017959895 -0.15187559 0.68600005
0.019159602 -0.15231836 0.68800002
0.020336466 -0.15253974 0.68900001
0.021516668 -0.15276116 0.69000006
0.022733053 -0.15320393 0.69200003
0.023956107 -0.15364672 0.69400001
0.025149649 -0.15386812 0.69500005
