ply
format ascii 1.0
comment PCL generated
element vertex 1328
property float x
property float y
property float z
element camera 0
property float view_px
property float view_py
property float view_pz
property float x_axisx
property float x_axisy
property float x_axisz
property float y_axisx
property float y_axisy
property float y_axisz
property float z_axisx
property float z_axisy
property float z_axisz
property float focal
property float scalex
property float scaley
property float centerx
property float centery
property int viewportx
property int viewporty
property float k1
property float k2
end_header
-0.031175202 -0.13805681 0.63800001
-0.030016843 -0.13762404 0.63600004
-0.028865155 -0.13719125 0.634
-0.027764 -0.13697486 0.63300002
-0.026666181 -0.13675848 0.63200003
-0.025571698 -0.13654208 0.63100004
-0.024519404 -0.13654208 0.63100004
-0.023429923 -0.1363257 0.63000005
-0.0223793 -0.1363257 0.63000005
-0.021328676 -0.1363257 0.63000005
-0.020278053 -0.1363257 0.63000005
-0.019227428 -0.1363257 0.63000005
-0.018176805 -0.1363257 0.63000005
-0.01712618 -0.1363257 0.63000005
-0.016075557 -0.1363257 0.63000005
-0.015048783 -0.13654208 0.63100004
-0.014018672 -0.13675848 0.63200003
-0.012985227 -0.13697486 0.63300002
-0.012004985 -0.13784042 0.63700002
-0.011028579 -0.13892238 0.64200002
-0.010035498 -0.14000432 0.64700001
-0.0090257395 -0.14108627 0.65200001
-0.0079993047 -0.14216822 0.65700001
-0.0069561941 -0.14325018 0.66200006
-0.0058875657 -0.14411573 0.66600001
-0.0048055965 -0.14498129 0.67000002
-0.0037047814 -0.14563046 0.67300004
-0.0025824483 -0.14563046 0.67300004
-0.0014622848 -0.14584686 0.67400002
-0.00033878602 -0.14606324 0.67500001
0.00078804808 -0.14627965 0.67600006
0.0019182174 -0.14649603 0.67700005
0.003056223 -0.1469288 0.67900002
0.0041885623 -0.1469288 0.67900002
0.0053287372 -0.1471452 0.68000001
0.0064722486 -0.14736159 0.68100005
0.0076190946 -0.14757797 0.68200004
0.0087692747 -0.14779437 0.68300003
0.0099227913 -0.14801075 0.68400002
0.011079644 -0.14822716 0.68500006
0.012221989 -0.14822716 0.68500006
0.013383844 -0.14844353 0.68600005
0.014549035 -0.14865993 0.68700004
0.015717559 -0.14887631 0.68800002
0.016889419 -0.1490927 0.68900001
0.018064618 -0.1493091 0.69000006
0.019243147 -0.14952549 0.69100004
0.02045453 -0.14995827 0.69300002
0.0216414 -0.15017465 0.69400001
0.022831608 -0.15039106 0.69500005
0.024059664 -0.15082383 0.69700003
0.025258208 -0.15104021 0.69800001
0.026422231 -0.15104021 0.69800001
0.027625779 -0.15125661 0.69900006
0.028832661 -0.151473 0.70000005
-0.072104253 -0.14901729 0.69400001
-0.070946902 -0.14901729 0.69400001
-0.069890112 -0.14923203 0.69500005
-0.068632193 -0.14901729 0.69400001
-0.067474842 -0.14901729 0.69400001
-0.066413052 -0.14923203 0.69500005
-0.065254025 -0.14923203 0.69500005
-0.064095005 -0.14923203 0.69500005
-0.062935986 -0.14923203 0.69500005
-0.061776966 -0.14923203 0.69500005
-0.060530715 -0.14901729 0.69400001
-0.059287813 -0.14880258 0.69300002
-0.058132127 -0.14880258 0.69300002
-0.056894224 -0.14858785 0.69200003
-0.055659655 -0.14837313 0.69100004
-0.054428425 -0.14815842 0.69000006
-0.053200524 -0.14794368 0.68900001
-0.05190042 -0.14751424 0.68700004
-0.050680861 -0.14729953 0.68600005
-0.049464639 -0.1470848 0.68500006
-0.048181206 -0.14665535 0.68300003
-0.046973318 -0.14644063 0.68200004
-0.045768768 -0.14622591 0.68100005
-0.044567551 -0.14601117 0.68000001
-0.043369673 -0.14579646 0.67900002
-0.042175129 -0.14558174 0.67800003
-0.040923387 -0.1451523 0.67600006
-0.039560571 -0.14429341 0.67200005
-0.038211096 -0.14343452 0.66800004
-0.035228968 -0.14042841 0.65400004
-0.033825122 -0.13914007 0.648
-0.032390762 -0.13763702 0.64100003
-0.031126337 -0.13677812 0.63700002
-0.029969648 -0.13634868 0.63500005
-0.028865155 -0.13613395 0.634
-0.02772014 -0.13570452 0.63200003
-0.026666181 -0.13570452 0.63200003
-0.025571698 -0.13548979 0.63100004
-0.024480548 -0.13527508 0.63000005
-0.023429923 -0.13527508 0.63000005
-0.0223793 -0.13527508 0.63000005
-0.021328676 -0.13527508 0.63000005
-0.020278053 -0.13527508 0.63000005
-0.019196907 -0.13506034 0.62900001
-0.018147953 -0.13506034 0.62900001
-0.01712618 -0.13527508 0.63000005
-0.016075557 -0.13527508 0.63000005
-0.015048783 -0.13548979 0.63100004
-0.014018672 -0.13570452 0.63200003
-0.012964713 -0.13570452 0.63200003
-0.011986138 -0.13656341 0.63600004
-0.011011401 -0.13763702 0.64100003
-0.010035498 -0.13892534 0.64700001
-0.0090118973 -0.13978423 0.65100002
-0.0079993047 -0.14107257 0.65700001
-0.0069561941 -0.14214619 0.66200006
-0.0058875657 -0.14300507 0.66600001
-0.0048055965 -0.14386396 0.67000002
-0.0036992766 -0.14429341 0.67200005
-0.0025824483 -0.14450812 0.67300004
-0.0014622848 -0.14472285 0.67400002
-0.00033878602 -0.14493757 0.67500001
0.00078804808 -0.1451523 0.67600006
0.0019210507 -0.14558174 0.67800003
0.003056223 -0.14579646 0.67900002
0.0041947309 -0.14601117 0.68000001
0.0053365738 -0.14622591 0.68100005
0.0064817523 -0.14644063 0.68200004
0.0076302658 -0.14665535 0.68300003
0.0087821139 -0.14687008 0.68400002
0.0099227913 -0.14687008 0.68400002
0.011079644 -0.1470848 0.68500006
0.012239831 -0.14729953 0.68600005
0.013403353 -0.14751424 0.68700004
0.014570212 -0.14772896 0.68800002
0.015740404 -0.14794368 0.68900001
0.016913934 -0.14815842 0.69000006
0.018090798 -0.14837313 0.69100004
0.019270996 -0.14858785 0.69200003
0.02045453 -0.14880258 0.69300002
0.021672584 -0.14923203 0.69500005
0.022864457 -0.14944674 0.69600004
0.024059664 -0.14966147 0.69700003
0.025258208 -0.14987618 0.69800001
0.026460087 -0.15009092 0.69900006
0.027625779 -0.15009092 0.69900006
0.028832661 -0.15030563 0.70000005
-0.070946902 -0.14785995 0.69400001
-0.069789544 -0.14785995 0.69400001
-0.068632193 -0.14785995 0.69400001
-0.067474842 -0.14785995 0.69400001
-0.066413052 -0.148073 0.69500005
-0.065254025 -0.148073 0.69500005
-0.064095005 -0.148073 0.69500005
-0.062935986 -0.148073 0.69500005
-0.061688073 -0.14785995 0.69400001
-0.060530715 -0.14785995 0.69400001
-0.059287813 -0.14764689 0.69300002
-0.058132127 -0.14764689 0.69300002
-0.056894224 -0.14743383 0.69200003
-0.055659655 -0.14722079 0.69100004
-0.054428425 -0.14700773 0.69000006
-0.053200524 -0.14679468 0.68900001
-0.05190042 -0.14636856 0.68700004
-0.050680861 -0.14615552 0.68600005
-0.049464639 -0.14594246 0.68500006
-0.048251748 -0.14572939 0.68400002
-0.047042191 -0.14551635 0.68300003
-0.045835976 -0.14530329 0.68200004
-0.044633094 -0.14509024 0.68100005
-0.043433543 -0.14487718 0.68000001
-0.042237334 -0.14466412 0.67900002
-0.040983923 -0.14423802 0.67700005
-0.039619438 -0.1433858 0.67300004
-0.033720724 -0.13763332 0.64600003
-0.032340232 -0.136355 0.64000005
-0.031077474 -0.13550279 0.63600004
-0.029969648 -0.13528973 0.63500005
-0.028819626 -0.13486362 0.63300002
-0.02772014 -0.13465056 0.63200003
-0.026623989 -0.1344375 0.63100004
-0.025571698 -0.1344375 0.63100004
-0.024480548 -0.13422446 0.63000005
-0.023429923 -0.13422446 0.63000005
-0.0223793 -0.13422446 0.63000005
-0.021294821 -0.13401139 0.62900001
-0.020245865 -0.13401139 0.62900001
-0.019196907 -0.13401139 0.62900001
-0.018147953 -0.13401139 0.62900001
-0.017098995 -0.13401139 0.62900001
-0.016075557 -0.13422446 0.63000005
-0.015024934 -0.13422446 0.63000005
-0.013996491 -0.1344375 0.63100004
-0.012964713 -0.13465056 0.63200003
-0.011986138 -0.13550279 0.63600004
-0.011011401 -0.13656805 0.64100003
-0.010019987 -0.13763332 0.64600003
-0.0090118973 -0.13869859 0.65100002
-0.0079871295 -0.13976386 0.65600002
-0.0069456859 -0.14082915 0.66100001
-0.0058875657 -0.14189442 0.66600001
-0.0048055965 -0.14274663 0.67000002
-0.0036992766 -0.14317276 0.67200005
-0.0025824483 -0.1433858 0.67300004
-0.0014622848 -0.14359885 0.67400002
-0.00033878602 -0.14381191 0.67500001
0.00078804808 -0.14402497 0.67600006
0.0019210507 -0.14445108 0.67800003
0.003056223 -0.14466412 0.67900002
0.0041947309 -0.14487718 0.68000001
0.0053444104 -0.14530329 0.68200004
0.0064817523 -0.14530329 0.68200004
0.0076414375 -0.14572939 0.68400002
0.0087821139 -0.14572939 0.68400002
0.0099372994 -0.14594246 0.68500006
0.011095818 -0.14615552 0.68600005
0.012239831 -0.14615552 0.68600005
0.013403353 -0.14636856 0.68700004
0.014570212 -0.14658162 0.68800002
0.015740404 -0.14679468 0.68900001
0.016913934 -0.14700773 0.69000006
0.018090798 -0.14722079 0.69100004
0.019298844 -0.14764689 0.69300002
0.020484045 -0.14785995 0.69400001
0.021672584 -0.148073 0.69500005
0.022864457 -0.14828606 0.69600004
0.024094183 -0.14871216 0.69800001
0.025258208 -0.14871216 0.69800001
0.026460087 -0.14892523 0.69900006
0.0276653 -0.14913829 0.70000005
0.028832661 -0.14913829 0.70000005
-0.070844673 -0.1464912 0.69300002
-0.069688983 -0.1464912 0.69300002
-0.068533301 -0.1464912 0.69300002
-0.067474842 -0.14670259 0.69400001
-0.066317484 -0.14670259 0.69400001
-0.065160133 -0.14670259 0.69400001
-0.064095005 -0.14691398 0.69500005
-0.062845424 -0.14670259 0.69400001
-0.061688073 -0.14670259 0.69400001
-0.060443498 -0.1464912 0.69300002
-0.059287813 -0.1464912 0.69300002
-0.058048241 -0.14627981 0.69200003
-0.056894224 -0.14627981 0.69200003
-0.055659655 -0.14606844 0.69100004
-0.054428425 -0.14585705 0.69000006
-0.053200524 -0.14564565 0.68900001
-0.051975965 -0.14543426 0.68800002
-0.050754741 -0.14522289 0.68700004
-0.04953685 -0.1450115 0.68600005
-0.048322294 -0.14480011 0.68500006
-0.047111068 -0.14458872 0.68400002
-0.045903184 -0.14437734 0.68300003
-0.044698633 -0.14416595 0.68200004
-0.043497421 -0.14395456 0.68100005
-0.042299539 -0.14374317 0.68000001
-0.041104995 -0.14353178 0.67900002
-0.039737176 -0.14268623 0.67500001
-0.038268298 -0.14141792 0.66900003
-0.033616327 -0.13613324 0.64400005
-0.030979745 -0.13401936 0.634
-0.029875252 -0.13380799 0.63300002
-0.028819626 -0.13380799 0.63300002
-0.02772014 -0.1335966 0.63200003
-0.026623989 -0.13338521 0.63100004
-0.025531173 -0.13317382 0.63000005
-0.024480548 -0.13317382 0.63000005
-0.023392731 -0.13296244 0.62900001
-0.022343775 -0.13296244 0.62900001
-0.021294821 -0.13296244 0.62900001
-0.020245865 -0.13296244 0.62900001
-0.019196907 -0.13296244 0.62900001
-0.018147953 -0.13296244 0.62900001
-0.017098995 -0.13296244 0.62900001
-0.016050039 -0.13296244 0.62900001
-0.015024934 -0.13317382 0.63000005
-0.013996491 -0.13338521 0.63100004
-0.012964713 -0.1335966 0.63200003
-0.011986138 -0.13444215 0.63600004
-0.011011401 -0.13549908 0.64100003
-0.010019987 -0.13655601 0.64600003
-0.0090118973 -0.13761295 0.65100002
-0.0069561941 -0.13993821 0.66200006
-0.0058875657 -0.14078374 0.66600001
-0.0048055965 -0.14162929 0.67000002
-0.0036992766 -0.14205208 0.67200005
-0.0025862856 -0.14247485 0.67400002
-0.0014644545 -0.14268623 0.67500001
-0.00033878602 -0.14268623 0.67500001
0.00078921381 -0.14310901 0.67700005
0.0019210507 -0.1433204 0.67800003
0.003056223 -0.14353178 0.67900002
0.0042009 -0.14395456 0.68100005
0.0053444104 -0.14416595 0.68200004
0.0064912564 -0.14437734 0.68300003
0.0076414375 -0.14458872 0.68400002
0.008794954 -0.14480011 0.68500006
0.0099518057 -0.1450115 0.68600005
0.011095818 -0.1450115 0.68600005
0.012257674 -0.14522289 0.68700004
0.013422864 -0.14543426 0.68800002
0.014591389 -0.14564565 0.68900001
0.015763251 -0.14585705 0.69000006
0.016938446 -0.14606844 0.69100004
0.018116977 -0.14627981 0.69200003
0.019298844 -0.1464912 0.69300002
0.020513562 -0.14691398 0.69500005
0.021672584 -0.14691398 0.69500005
0.022897309 -0.14733675 0.69700003
0.024094183 -0.14754814 0.69800001
0.025258208 -0.14754814 0.69800001
0.026460087 -0.14775953 0.69900006
0.0276653 -0.14797091 0.70000005
0.028832661 -0.14797091 0.70000005
-0.069688983 -0.14533553 0.69300002
-0.068533301 -0.14533553 0.69300002
-0.067377612 -0.14533553 0.69300002
-0.066317484 -0.14554524 0.69400001
-0.065254025 -0.14575496 0.69500005
-0.064002782 -0.14554524 0.69400001
-0.062845424 -0.14554524 0.69400001
-0.061688073 -0.14554524 0.69400001
-0.060443498 -0.14533553 0.69300002
-0.059287813 -0.14533553 0.69300002
-0.058048241 -0.14512581 0.69200003
-0.056812007 -0.14491609 0.69100004
-0.055659655 -0.14491609 0.69100004
-0.054428425 -0.14470637 0.69000006
-0.053200524 -0.14449663 0.68900001
-0.051975965 -0.14428693 0.68800002
-0.050754741 -0.14407721 0.68700004
-0.04953685 -0.14386749 0.68600005
-0.048392836 -0.14386749 0.68600005
-0.047179945 -0.14365777 0.68500006
-0.045970391 -0.14344804 0.68400002
-0.044764172 -0.14323834 0.68300003
-0.043561291 -0.14302862 0.68200004
-0.042423952 -0.14302862 0.68200004
-0.041165531 -0.14260916 0.68000001
-0.039737176 -0.14156057 0.67500001
-0.032138105 -0.13338152 0.63600004
-0.030930882 -0.13275236 0.63300002
-0.029875252 -0.13275236 0.63300002
-0.028774099 -0.13254264 0.63200003
-0.027676281 -0.13233292 0.63100004
-0.026581796 -0.1321232 0.63000005
-0.025531173 -0.1321232 0.63000005
-0.024441687 -0.13191348 0.62900001
-0.023392731 -0.13191348 0.62900001
-0.022343775 -0.13191348 0.62900001
-0.021294821 -0.13191348 0.62900001
-0.020245865 -0.13191348 0.62900001
-0.019196907 -0.13191348 0.62900001
-0.0181191 -0.13170376 0.62800002
-0.017098995 -0.13191348 0.62900001
-0.016050039 -0.13191348 0.62900001
-0.015001084 -0.13191348 0.62900001
-0.013996491 -0.13233292 0.63100004
-0.012985227 -0.13275236 0.63300002
-0.012004985 -0.13359123 0.63700002
-0.011028579 -0.13463983 0.64200002
-0.010035498 -0.13568842 0.64700001
-0.0090257395 -0.13673702 0.65200001
-0.0069561941 -0.13883422 0.66200006
-0.0058964062 -0.13988282 0.66700006
-0.0048055965 -0.14051197 0.67000002
-0.0036992766 -0.14093143 0.67200005
-0.0025824483 -0.14114113 0.67300004
-0.0014644545 -0.14156057 0.67500001
-0.00033878602 -0.14156057 0.67500001
0.00078921381 -0.14198002 0.67700005
0.0019210507 -0.14218973 0.67800003
0.0030607241 -0.14260916 0.68000001
0.0042009 -0.1428189 0.68100005
0.0053444104 -0.14302862 0.68200004
0.0064912564 -0.14323834 0.68300003
0.0076526096 -0.14365777 0.68500006
0.0088077933 -0.14386749 0.68600005
0.0099518057 -0.14386749 0.68600005
0.011111992 -0.14407721 0.68700004
0.012275516 -0.14428693 0.68800002
0.013442373 -0.14449663 0.68900001
0.014612568 -0.14470637 0.69000006
0.015763251 -0.14470637 0.69000006
0.016938446 -0.14491609 0.69100004
0.018143158 -0.14533553 0.69300002
0.019326692 -0.14554524 0.69400001
0.020513562 -0.14575496 0.69500005
0.021703769 -0.14596468 0.69600004
0.022897309 -0.1461744 0.69700003
0.024094183 -0.14638412 0.69800001
0.025258208 -0.14638412 0.69800001
0.026460087 -0.14659384 0.69900006
0.0276653 -0.14680356 0.70000005
0.028832661 -0.14680356 0.70000005
-0.06958843 -0.14397179 0.69200003
-0.068533301 -0.14417984 0.69300002
-0.067377612 -0.14417984 0.69300002
-0.066317484 -0.14438789 0.69400001
-0.065160133 -0.14438789 0.69400001
-0.064002782 -0.14438789 0.69400001
-0.062845424 -0.14438789 0.69400001
-0.061688073 -0.14438789 0.69400001
-0.060443498 -0.14417984 0.69300002
-0.059287813 -0.14417984 0.69300002
-0.058048241 -0.14397179 0.69200003
-0.056894224 -0.14397179 0.69200003
-0.055659655 -0.14376374 0.69100004
-0.054428425 -0.14355569 0.69000006
-0.053200524 -0.14334762 0.68900001
-0.051975965 -0.14313957 0.68800002
-0.050754741 -0.14293152 0.68700004
-0.049609061 -0.14293152 0.68700004
-0.048392836 -0.14272347 0.68600005
-0.047248822 -0.14272347 0.68600005
-0.045970391 -0.14230737 0.68400002
-0.044829715 -0.14230737 0.68400002
-0.043625165 -0.14209932 0.68300003
-0.042486154 -0.14209932 0.68300003
-0.04128661 -0.14189127 0.68200004
-0.039796051 -0.14064296 0.67600006
-0.038268298 -0.13918659 0.66900003
-0.033407532 -0.1331531 0.64000005
-0.030882018 -0.13148868 0.63200003
-0.029828057 -0.13148868 0.63200003
-0.028728571 -0.13128063 0.63100004
-0.027632419 -0.13107258 0.63000005
-0.026581796 -0.13107258 0.63000005
-0.025490645 -0.13086452 0.62900001
-0.024441687 -0.13086452 0.62900001
-0.023392731 -0.13086452 0.62900001
-0.022343775 -0.13086452 0.62900001
-0.021260966 -0.13065647 0.62800002
-0.020213678 -0.13065647 0.62800002
-0.019166388 -0.13065647 0.62800002
-0.0181191 -0.13065647 0.62800002
-0.017071811 -0.13065647 0.62800002
-0.016024522 -0.13065647 0.62800002
-0.015001084 -0.13086452 0.62900001
-0.01397431 -0.13107258 0.63000005
-0.012964713 -0.13148868 0.63200003
-0.011986138 -0.13232088 0.63600004
-0.011011401 -0.13336115 0.64100003
-0.010035498 -0.13460945 0.64700001
-0.0079993047 -0.13668996 0.65700001
-0.0069561941 -0.13773024 0.66200006
-0.0058964062 -0.13877049 0.66700006
-0.0048127691 -0.13960269 0.671
-0.0037047814 -0.14001881 0.67300004
-0.0025862856 -0.14022686 0.67400002
-0.0014622848 -0.14022686 0.67400002
-0.00033878602 -0.14043489 0.67500001
0.00078921381 -0.14085101 0.67700005
0.0019210507 -0.14105906 0.67800003
0.0030607241 -0.14147516 0.68000001
0.0042009 -0.14168322 0.68100005
0.0053444104 -0.14189127 0.68200004
0.0065007601 -0.14230737 0.68400002
0.0076526096 -0.14251542 0.68500006
0.0088077933 -0.14272347 0.68600005
0.0099518057 -0.14272347 0.68600005
0.011111992 -0.14293152 0.68700004
0.012275516 -0.14313957 0.68800002
0.013442373 -0.14334762 0.68900001
0.014612568 -0.14355569 0.69000006
0.015786096 -0.14376374 0.69100004
0.016962958 -0.14397179 0.69200003
0.018143158 -0.14417984 0.69300002
0.019326692 -0.14438789 0.69400001
0.020513562 -0.14459594 0.69500005
0.021703769 -0.14480399 0.69600004
0.022897309 -0.14501204 0.69700003
0.024094183 -0.14522009 0.69800001
0.025258208 -0.14522009 0.69800001
0.026460087 -0.14542815 0.69900006
0.027625779 -0.14542815 0.69900006
0.028832661 -0.1456362 0.70000005
-0.070640214 -0.14261138 0.69100004
-0.06958843 -0.14281777 0.69200003
-0.06843441 -0.14281777 0.69200003
-0.067377612 -0.14302415 0.69300002
-0.066317484 -0.14323053 0.69400001
-0.065160133 -0.14323053 0.69400001
-0.064002782 -0.14323053 0.69400001
-0.062845424 -0.14323053 0.69400001
-0.061599188 -0.14302415 0.69300002
-0.060443498 -0.14302415 0.69300002
-0.059287813 -0.14302415 0.69300002
-0.058048241 -0.14281777 0.69200003
-0.056812007 -0.14261138 0.69100004
-0.055579107 -0.142405 0.69000006
-0.054428425 -0.142405 0.69000006
-0.053200524 -0.14219861 0.68900001
-0.052051511 -0.14219861 0.68900001
-0.050828617 -0.14199223 0.68800002
-0.049609061 -0.14178585 0.68700004
-0.048463382 -0.14178585 0.68700004
-0.047248822 -0.14157946 0.68600005
-0.046037599 -0.14137308 0.68500006
-0.044895258 -0.14137308 0.68500006
-0.043689035 -0.14116669 0.68400002
-0.042486154 -0.14096031 0.68300003
-0.041347146 -0.14096031 0.68300003
-0.039913788 -0.13992839 0.67800003
-0.031986509 -0.1306411 0.63300002
-0.030833155 -0.13022834 0.63100004
-0.029780861 -0.13022834 0.63100004
-0.028683042 -0.13002196 0.63000005
-0.027632419 -0.13002196 0.63000005
-0.026539601 -0.12981556 0.62900001
-0.025490645 -0.12981556 0.62900001
-0.024441687 -0.12981556 0.62900001
-0.023355542 -0.12960918 0.62800002
-0.022308253 -0.12960918 0.62800002
-0.021260966 -0.12960918 0.62800002
-0.02018149 -0.1294028 0.62700003
-0.019135868 -0.1294028 0.62700003
-0.018090248 -0.1294028 0.62700003
-0.017071811 -0.12960918 0.62800002
-0.016024522 -0.12960918 0.62800002
-0.014977235 -0.12960918 0.62800002
-0.01397431 -0.13002196 0.63000005
-0.012985227 -0.1306411 0.63300002
-0.012004985 -0.13146664 0.63700002
-0.011028579 -0.13249856 0.64200002
-0.0080114808 -0.13580072 0.65800005
-0.0069667022 -0.13683264 0.66300005
-0.0059140865 -0.13807094 0.66900003
-0.0048199417 -0.13869008 0.67200005
-0.0037047814 -0.13889647 0.67300004
-0.0025862856 -0.13910285 0.67400002
-0.0014644545 -0.13930923 0.67500001
-0.00033878602 -0.13930923 0.67500001
0.00078921381 -0.139722 0.67700005
0.0019238841 -0.14013477 0.67900002
0.0030607241 -0.14034115 0.68000001
0.0042009 -0.14054754 0.68100005
0.0053444104 -0.14075392 0.68200004
0.0065007601 -0.14116669 0.68400002
0.0076526096 -0.14137308 0.68500006
0.0088077933 -0.14157946 0.68600005
0.0099663129 -0.14178585 0.68700004
0.011128167 -0.14199223 0.68800002
0.012293358 -0.14219861 0.68900001
0.013461884 -0.142405 0.69000006
0.014612568 -0.142405 0.69000006
0.015786096 -0.14261138 0.69100004
0.016962958 -0.14281777 0.69200003
0.018169338 -0.14323053 0.69400001
0.019354541 -0.14343692 0.69500005
0.020513562 -0.14343692 0.69500005
0.021703769 -0.1436433 0.69600004
0.022897309 -0.14384969 0.69700003
0.024094183 -0.14405607 0.69800001
0.025294395 -0.14426246 0.69900006
0.026460087 -0.14426246 0.69900006
0.0276653 -0.14446884 0.70000005
0.028832661 -0.14446884 0.70000005
-0.072733782 -0.14104959 0.68900001
-0.071688674 -0.14125432 0.69000006
-0.070640214 -0.14145903 0.69100004
-0.06958843 -0.14166375 0.69200003
-0.06843441 -0.14166375 0.69200003
-0.067377612 -0.14186846 0.69300002
-0.06622193 -0.14186846 0.69300002
-0.065160133 -0.14207317 0.69400001
-0.064002782 -0.14207317 0.69400001
-0.062845424 -0.14207317 0.69400001
-0.061599188 -0.14186846 0.69300002
-0.060443498 -0.14186846 0.69300002
-0.059202261 -0.14166375 0.69200003
-0.058048241 -0.14166375 0.69200003
-0.056812007 -0.14145903 0.69100004
-0.055659655 -0.14145903 0.69100004
-0.054428425 -0.14125432 0.69000006
-0.053277742 -0.14125432 0.69000006
-0.052051511 -0.14104959 0.68900001
-0.050828617 -0.14084488 0.68800002
-0.049681269 -0.14084488 0.68800002
-0.048463382 -0.14064017 0.68700004
-0.047248822 -0.14043544 0.68600005
-0.046104807 -0.14043544 0.68600005
-0.044895258 -0.14023073 0.68500006
-0.043689035 -0.140026 0.68400002
-0.042548358 -0.140026 0.68400002
-0.041347146 -0.13982129 0.68300003
-0.039972655 -0.13900243 0.67900002
-0.031935979 -0.12938076 0.63200003
-0.030784292 -0.12897134 0.63000005
-0.029733665 -0.12897134 0.63000005
-0.028683042 -0.12897134 0.63000005
-0.027588556 -0.12876661 0.62900001
-0.026539601 -0.12876661 0.62900001
-0.025490645 -0.12876661 0.62900001
-0.024402829 -0.1285619 0.62800002
-0.023355542 -0.1285619 0.62800002
-0.022308253 -0.1285619 0.62800002
-0.02122711 -0.12835719 0.62700003
-0.02018149 -0.12835719 0.62700003
-0.019135868 -0.12835719 0.62700003
-0.018090248 -0.12835719 0.62700003
-0.017044628 -0.12835719 0.62700003
-0.016024522 -0.1285619 0.62800002
-0.014977235 -0.1285619 0.62800002
-0.01397431 -0.12897134 0.63000005
-0.012985227 -0.12958547 0.63300002
-0.012004985 -0.13040434 0.63700002
-0.011045758 -0.13163264 0.64300001
-0.010051008 -0.13265622 0.648
-0.0090534268 -0.13388452 0.65400004
-0.0080236569 -0.13490811 0.65900004
-0.0069772098 -0.13593169 0.66400003
-0.0059229266 -0.13715999 0.67000002
-0.0048271143 -0.13777414 0.67300004
-0.0037102862 -0.13797885 0.67400002
-0.0025901226 -0.13818356 0.67500001
-0.0014644545 -0.13818356 0.67500001
-0.00033928794 -0.13838829 0.67600006
0.00079037953 -0.13879772 0.67800003
0.0019238841 -0.13900243 0.67900002
0.0030607241 -0.13920714 0.68000001
0.0042070686 -0.13961658 0.68200004
0.0053522466 -0.13982129 0.68300003
0.0065007601 -0.140026 0.68400002
0.0076526096 -0.14023073 0.68500006
0.0088077933 -0.14043544 0.68600005
0.0099663129 -0.14064017 0.68700004
0.011128167 -0.14084488 0.68800002
0.012293358 -0.14104959 0.68900001
0.013461884 -0.14125432 0.69000006
0.014612568 -0.14125432 0.69000006
0.01580894 -0.14166375 0.69200003
0.016987471 -0.14186846 0.69300002
0.018169338 -0.14207317 0.69400001
0.019354541 -0.1422779 0.69500005
0.020513562 -0.1422779 0.69500005
0.021703769 -0.14248261 0.69600004
0.022897309 -0.14268732 0.69700003
0.024094183 -0.14289203 0.69800001
0.025294395 -0.14309676 0.69900006
0.026497941 -0.14330147 0.70000005
0.0276653 -0.14330147 0.70000005
0.028873852 -0.1435062 0.70100003
0.030042877 -0.1435062 0.70100003
-0.072839357 -0.14010364 0.69000006
-0.071688674 -0.14010364 0.69000006
-0.070640214 -0.14030668 0.69100004
-0.06948787 -0.14030668 0.69100004
-0.06843441 -0.14050972 0.69200003
-0.067474842 -0.14091583 0.69400001
-0.06622193 -0.14071278 0.69300002
-0.065160133 -0.14091583 0.69400001
-0.064002782 -0.14091583 0.69400001
-0.062845424 -0.14091583 0.69400001
-0.061599188 -0.14071278 0.69300002
-0.060443498 -0.14071278 0.69300002
-0.059202261 -0.14050972 0.69200003
-0.058048241 -0.14050972 0.69200003
-0.056812007 -0.14030668 0.69100004
-0.055659655 -0.14030668 0.69100004
-0.054428425 -0.14010364 0.69000006
-0.053277742 -0.14010364 0.69000006
-0.052051511 -0.13990058 0.68900001
-0.050902497 -0.13990058 0.68900001
-0.049681269 -0.13969754 0.68800002
-0.048463382 -0.13949449 0.68700004
-0.047248822 -0.13929144 0.68600005
-0.046104807 -0.13929144 0.68600005
-0.044895258 -0.13908839 0.68500006
-0.043752912 -0.13908839 0.68500006
-0.042548358 -0.13888533 0.68400002
-0.033198733 -0.12913901 0.63600004
-0.031834915 -0.12792072 0.63000005
-0.030784292 -0.12792072 0.63000005
-0.029686468 -0.12771766 0.62900001
-0.028637512 -0.12771766 0.62900001
-0.027588556 -0.12771766 0.62900001
-0.026539601 -0.12771766 0.62900001
-0.02545012 -0.12751462 0.62800002
-0.024402829 -0.12751462 0.62800002
-0.023318352 -0.12731156 0.62700003
-0.022272732 -0.12731156 0.62700003
-0.02122711 -0.12731156 0.62700003
-0.02018149 -0.12731156 0.62700003
-0.019135868 -0.12731156 0.62700003
-0.018090248 -0.12731156 0.62700003
-0.017044628 -0.12731156 0.62700003
-0.015999006 -0.12731156 0.62700003
-0.014977235 -0.12751462 0.62800002
-0.01397431 -0.12792072 0.63000005
-0.012985227 -0.12852985 0.63300002
-0.01202383 -0.12954509 0.63800001
-0.011062937 -0.1307634 0.64400005
-0.010066519 -0.13177864 0.64900005
-0.00906727 -0.13299693 0.65500003
-0.0080480073 -0.13421522 0.66100001
-0.0070087332 -0.13543352 0.66700006
-0.0059406068 -0.13644876 0.67200005
-0.0048342869 -0.13685486 0.67400002
-0.003715791 -0.1370579 0.67500001
-0.0025901226 -0.1370579 0.67500001
-0.0014666241 -0.13726096 0.67600006
-0.00033978987 -0.137464 0.67700005
0.00079037953 -0.13766704 0.67800003
0.0019238841 -0.1378701 0.67900002
0.0030652254 -0.1382762 0.68100005
0.0042070686 -0.13847925 0.68200004
0.0053522466 -0.13868229 0.68300003
0.0065102647 -0.13908839 0.68500006
0.0076526096 -0.13908839 0.68500006
0.0088077933 -0.13929144 0.68600005
0.0099663129 -0.13949449 0.68700004
0.011128167 -0.13969754 0.68800002
0.012293358 -0.13990058 0.68900001
0.013461884 -0.14010364 0.69000006
0.014612568 -0.14010364 0.69000006
0.015786096 -0.14030668 0.69100004
0.016962958 -0.14050972 0.69200003
0.018169338 -0.14091583 0.69400001
0.019354541 -0.14111888 0.69500005
0.020513562 -0.14111888 0.69500005
0.021703769 -0.14132193 0.69600004
0.02293016 -0.14172801 0.69800001
0.024094183 -0.14172801 0.69800001
0.025330581 -0.14213413 0.70000005
0.026497941 -0.14213413 0.70000005
0.027704822 -0.14233717 0.70100003
0.028873852 -0.14233717 0.70100003
0.030085735 -0.14254022 0.70200002
-0.07399004 -0.13895296 0.69000006
-0.072839357 -0.13895296 0.69000006
-0.071792565 -0.13915433 0.69100004
-0.070640214 -0.13915433 0.69100004
-0.06958843 -0.1393557 0.69200003
-0.068533301 -0.13955709 0.69300002
-0.067474842 -0.13975847 0.69400001
-0.066317484 -0.13975847 0.69400001
-0.065160133 -0.13975847 0.69400001
-0.064002782 -0.13975847 0.69400001
-0.062845424 -0.13975847 0.69400001
-0.061599188 -0.13955709 0.69300002
-0.060443498 -0.13955709 0.69300002
-0.059202261 -0.1393557 0.69200003
-0.058048241 -0.1393557 0.69200003
-0.056812007 -0.13915433 0.69100004
-0.055659655 -0.13915433 0.69100004
-0.054428425 -0.13895296 0.69000006
-0.053277742 -0.13895296 0.69000006
-0.052051511 -0.13875157 0.68900001
-0.050902497 -0.13875157 0.68900001
-0.049681269 -0.13855018 0.68800002
-0.048463382 -0.1383488 0.68700004
-0.047317695 -0.1383488 0.68700004
-0.046104807 -0.13814743 0.68600005
-0.044895258 -0.13794605 0.68500006
-0.043752912 -0.13794605 0.68500006
-0.042548358 -0.13774465 0.68400002
-0.041407682 -0.13774465 0.68400002
-0.033146534 -0.127877 0.63500005
-0.031834915 -0.12687008 0.63000005
-0.030735426 -0.12666869 0.62900001
-0.029686468 -0.12666869 0.62900001
-0.028637512 -0.12666869 0.62900001
-0.027588556 -0.12666869 0.62900001
-0.026497409 -0.12646732 0.62800002
-0.02545012 -0.12646732 0.62800002
-0.024363972 -0.12626594 0.62700003
-0.023318352 -0.12626594 0.62700003
-0.022272732 -0.12626594 0.62700003
-0.02122711 -0.12626594 0.62700003
-0.02018149 -0.12626594 0.62700003
-0.019135868 -0.12626594 0.62700003
-0.018090248 -0.12626594 0.62700003
-0.017044628 -0.12626594 0.62700003
-0.015999006 -0.12626594 0.62700003
-0.014953386 -0.12626594 0.62700003
-0.01397431 -0.12687008 0.63000005
-0.01300574 -0.12767561 0.634
-0.012042677 -0.12868252 0.63900006
-0.011080115 -0.1298908 0.64500004
-0.0090949554 -0.13230737 0.65700001
-0.0080601834 -0.13331428 0.66200006
-0.007029749 -0.13472395 0.66900003
-0.0059494469 -0.13552947 0.67300004
-0.004841459 -0.13593222 0.67500001
-0.003715791 -0.13593222 0.67500001
-0.0025939601 -0.13613361 0.67600006
-0.0014687936 -0.136335 0.67700005
-0.00034029176 -0.13653637 0.67800003
0.00079154526 -0.13673775 0.67900002
0.0019267175 -0.13693912 0.68000001
0.0030652254 -0.13714053 0.68100005
0.0042070686 -0.1373419 0.68200004
0.0053522466 -0.13754328 0.68300003
0.0065007601 -0.13774465 0.68400002
0.0076526096 -0.13794605 0.68500006
0.0088077933 -0.13814743 0.68600005
0.0099663129 -0.1383488 0.68700004
0.011128167 -0.13855018 0.68800002
0.012293358 -0.13875157 0.68900001
0.013461884 -0.13895296 0.69000006
0.014612568 -0.13895296 0.69000006
0.015786096 -0.13915433 0.69100004
0.016987471 -0.13955709 0.69300002
0.018169338 -0.13975847 0.69400001
0.019354541 -0.13995986 0.69500005
0.020543078 -0.14016123 0.69600004
0.021734951 -0.14036261 0.69700003
0.02293016 -0.14056399 0.69800001
0.024128703 -0.14076538 0.69900006
0.025330581 -0.14096676 0.70000005
0.026535794 -0.14116813 0.70100003
0.027744344 -0.14136952 0.70200002
0.02891504 -0.14136952 0.70200002
0.030128591 -0.1415709 0.70300001
-0.07399004 -0.13780227 0.69000006
-0.072839357 -0.13780227 0.69000006
-0.071792565 -0.13800198 0.69100004
-0.070742443 -0.1382017 0.69200003
-0.06958843 -0.1382017 0.69200003
-0.068533301 -0.1384014 0.69300002
-0.067474842 -0.13860112 0.69400001
-0.066317484 -0.13860112 0.69400001
-0.065254025 -0.13880084 0.69500005
-0.064002782 -0.13860112 0.69400001
-0.062845424 -0.13860112 0.69400001
-0.061599188 -0.1384014 0.69300002
-0.060443498 -0.1384014 0.69300002
-0.059202261 -0.1382017 0.69200003
-0.058048241 -0.1382017 0.69200003
-0.056812007 -0.13800198 0.69100004
-0.055659655 -0.13800198 0.69100004
-0.054428425 -0.13780227 0.69000006
-0.053277742 -0.13780227 0.69000006
-0.052051511 -0.13760255 0.68900001
-0.050902497 -0.13760255 0.68900001
-0.049681269 -0.13740285 0.68800002
-0.048463382 -0.13720313 0.68700004
-0.047248822 -0.13700342 0.68600005
-0.046104807 -0.13700342 0.68600005
-0.044895258 -0.1368037 0.68500006
-0.043752912 -0.1368037 0.68500006
-0.042610567 -0.1368037 0.68500006
-0.041407682 -0.13660398 0.68400002
-0.039796051 -0.13500629 0.67600006
-0.031784382 -0.12561974 0.62900001
-0.030735426 -0.12561974 0.62900001
-0.029686468 -0.12561974 0.62900001
-0.028637512 -0.12561974 0.62900001
-0.027588556 -0.12561974 0.62900001
-0.026497409 -0.12542003 0.62800002
-0.02545012 -0.12542003 0.62800002
-0.024363972 -0.12522033 0.62700003
-0.023318352 -0.12522033 0.62700003
-0.022272732 -0.12522033 0.62700003
-0.02122711 -0.12522033 0.62700003
-0.020149304 -0.12502061 0.62600005
-0.019105351 -0.12502061 0.62600005
-0.018090248 -0.12522033 0.62700003
-0.017044628 -0.12522033 0.62700003
-0.015999006 -0.12522033 0.62700003
-0.014953386 -0.12522033 0.62700003
-0.01397431 -0.12581947 0.63000005
-0.013026255 -0.12681803 0.63500005
-0.012061523 -0.1278166 0.64000005
-0.011097293 -0.12901488 0.64600003
-0.010113052 -0.13021316 0.65200001
-0.0091087995 -0.13141145 0.65800005
-0.0080845337 -0.13260972 0.66400003
-0.0070402566 -0.133808 0.67000002
-0.005958287 -0.13460685 0.67400002
-0.004841459 -0.13480656 0.67500001
-0.0037212961 -0.13500629 0.67600006
-0.0025977972 -0.135206 0.67700005
-0.0014687936 -0.135206 0.67700005
-0.00034029176 -0.1354057 0.67800003
0.00079154526 -0.13560542 0.67900002
0.0019267175 -0.13580513 0.68000001
0.0030652254 -0.13600485 0.68100005
0.0042070686 -0.13620457 0.68200004
0.0053522466 -0.13640428 0.68300003
0.0065007601 -0.13660398 0.68400002
0.0076526096 -0.1368037 0.68500006
0.0088077933 -0.13700342 0.68600005
0.0099518057 -0.13700342 0.68600005
0.011111992 -0.13720313 0.68700004
0.012275516 -0.13740285 0.68800002
0.013461884 -0.13780227 0.69000006
0.014612568 -0.13780227 0.69000006
0.01580894 -0.1382017 0.69200003
0.016987471 -0.1384014 0.69300002
0.018169338 -0.13860112 0.69400001
0.019354541 -0.13880084 0.69500005
0.020543078 -0.13900055 0.69600004
0.021734951 -0.13920026 0.69700003
0.02293016 -0.13939998 0.69800001
0.024163222 -0.1397994 0.70000005
0.025366768 -0.13999912 0.70100003
0.026535794 -0.13999912 0.70100003
0.027783863 -0.14039853 0.70300001
0.028997419 -0.14059827 0.70400006
0.030214306 -0.14079797 0.70500004
-0.07399004 -0.13665159 0.69000006
-0.072944917 -0.13684963 0.69100004
-0.071896464 -0.13704768 0.69200003
-0.070742443 -0.13704768 0.69200003
-0.069688983 -0.13724571 0.69300002
-0.068632193 -0.13744377 0.69400001
-0.067474842 -0.13744377 0.69400001
-0.066413052 -0.13764182 0.69500005
-0.065254025 -0.13764182 0.69500005
-0.064002782 -0.13744377 0.69400001
-0.062845424 -0.13744377 0.69400001
-0.061688073 -0.13744377 0.69400001
-0.060443498 -0.13724571 0.69300002
-0.059202261 -0.13704768 0.69200003
-0.058048241 -0.13704768 0.69200003
-0.056812007 -0.13684963 0.69100004
-0.055659655 -0.13684963 0.69100004
-0.054428425 -0.13665159 0.69000006
-0.053277742 -0.13665159 0.69000006
-0.052051511 -0.13645352 0.68900001
-0.050902497 -0.13645352 0.68900001
-0.049681269 -0.13625549 0.68800002
-0.048463382 -0.13605745 0.68700004
-0.047248822 -0.1358594 0.68600005
-0.046104807 -0.1358594 0.68600005
-0.044960797 -0.1358594 0.68600005
-0.043752912 -0.13566136 0.68500006
-0.042548358 -0.1354633 0.68400002
-0.041407682 -0.1354633 0.68400002
-0.039737176 -0.13368089 0.67500001
-0.031834915 -0.12476884 0.63000005
-0.030784292 -0.12476884 0.63000005
-0.029686468 -0.12457079 0.62900001
-0.028637512 -0.12457079 0.62900001
-0.027588556 -0.12457079 0.62900001
-0.026497409 -0.12437274 0.62800002
-0.02545012 -0.12437274 0.62800002
-0.024363972 -0.1241747 0.62700003
-0.023318352 -0.1241747 0.62700003
-0.022272732 -0.1241747 0.62700003
-0.02122711 -0.1241747 0.62700003
-0.020149304 -0.12397666 0.62600005
-0.019105351 -0.12397666 0.62600005
-0.018061398 -0.12397666 0.62600005
-0.017044628 -0.1241747 0.62700003
-0.015999006 -0.1241747 0.62700003
-0.014953386 -0.1241747 0.62700003
-0.013996491 -0.12496688 0.63100004
-0.013046768 -0.12595712 0.63600004
-0.012080369 -0.12694734 0.64100003
-0.011114472 -0.12813561 0.64700001
-0.010128563 -0.1293239 0.65300006
-0.0091226427 -0.13051216 0.65900004
-0.0080967089 -0.13170044 0.66500002
-0.0070507643 -0.1328887 0.671
-0.0059671272 -0.13368089 0.67500001
-0.004841459 -0.13368089 0.67500001
-0.0037212961 -0.13387895 0.67600006
-0.0025977972 -0.13407698 0.67700005
-0.0014709631 -0.13427503 0.67800003
-0.00034079366 -0.13447307 0.67900002
0.00079154526 -0.13447307 0.67900002
0.0019267175 -0.13467112 0.68000001
0.0030652254 -0.13486917 0.68100005
0.0042070686 -0.13506721 0.68200004
0.0053522466 -0.13526526 0.68300003
0.0064912564 -0.13526526 0.68300003
0.0076526096 -0.13566136 0.68500006
0.0088077933 -0.1358594 0.68600005
0.0099518057 -0.1358594 0.68600005
0.011111992 -0.13605745 0.68700004
0.012275516 -0.13625549 0.68800002
0.013461884 -0.13665159 0.69000006
0.014612568 -0.13665159 0.69000006
0.01580894 -0.13704768 0.69200003
0.016987471 -0.13724571 0.69300002
0.018169338 -0.13744377 0.69400001
0.019354541 -0.13764182 0.69500005
0.020543078 -0.13783985 0.69600004
0.021766134 -0.13823594 0.69800001
0.022963012 -0.13843399 0.69900006
0.024163222 -0.13863204 0.70000005
0.025402954 -0.13902813 0.70200002
0.026611501 -0.13922617 0.70300001
0.027823389 -0.13942422 0.70400006
0.02903861 -0.13962227 0.70500004
0.030257164 -0.13982031 0.70600003
0.031479053 -0.14001836 0.70700002
-0.074204504 -0.13589364 0.69200003
-0.073156044 -0.13609003 0.69300002
-0.072000355 -0.13609003 0.69300002
-0.070946902 -0.13628641 0.69400001
-0.069789544 -0.13628641 0.69400001
-0.068731092 -0.13648279 0.69500005
-0.067572072 -0.13648279 0.69500005
-0.066413052 -0.13648279 0.69500005
-0.065254025 -0.13648279 0.69500005
-0.064095005 -0.13648279 0.69500005
-0.062845424 -0.13628641 0.69400001
-0.061688073 -0.13628641 0.69400001
-0.060443498 -0.13609003 0.69300002
-0.059287813 -0.13609003 0.69300002
-0.058048241 -0.13589364 0.69200003
-0.056894224 -0.13589364 0.69200003
-0.055659655 -0.13569728 0.69100004
-0.054428425 -0.13550089 0.69000006
-0.053277742 -0.13550089 0.69000006
-0.052051511 -0.13530451 0.68900001
-0.050828617 -0.13510813 0.68800002
-0.049681269 -0.13510813 0.68800002
-0.048463382 -0.13491176 0.68700004
-0.047248822 -0.13471538 0.68600005
-0.046104807 -0.13471538 0.68600005
-0.044895258 -0.13451901 0.68500006
-0.043752912 -0.13451901 0.68500006
-0.042548358 -0.13432263 0.68400002
-0.041407682 -0.13432263 0.68400002
-0.033042133 -0.12430734 0.63300002
-0.031834915 -0.12371821 0.63000005
-0.030784292 -0.12371821 0.63000005
-0.029686468 -0.12352183 0.62900001
-0.028637512 -0.12352183 0.62900001
-0.027588556 -0.12352183 0.62900001
-0.026497409 -0.12332545 0.62800002
-0.02545012 -0.12332545 0.62800002
-0.024363972 -0.12312907 0.62700003
-0.023318352 -0.12312907 0.62700003
-0.022272732 -0.12312907 0.62700003
-0.02122711 -0.12312907 0.62700003
-0.020149304 -0.12293269 0.62600005
-0.019105351 -0.12293269 0.62600005
-0.018061398 -0.12293269 0.62600005
-0.017044628 -0.12312907 0.62700003
-0.015999006 -0.12312907 0.62700003
-0.014953386 -0.12312907 0.62700003
-0.013996491 -0.12391458 0.63100004
-0.013046768 -0.12489647 0.63600004
-0.012099215 -0.12607475 0.64200002
-0.010128563 -0.12823491 0.65300006
-0.0091226427 -0.12941317 0.65900004
-0.008108885 -0.13078782 0.66600001
-0.0070612724 -0.13196608 0.67200005
-0.0059671272 -0.13255522 0.67500001
-0.004848632 -0.1327516 0.67600006
-0.0037268009 -0.13294798 0.67700005
-0.0026016345 -0.13314435 0.67800003
-0.0014731326 -0.13334073 0.67900002
-0.00034079366 -0.13334073 0.67900002
0.00079271104 -0.13353711 0.68000001
0.001929551 -0.1337335 0.68100005
0.0030652254 -0.1337335 0.68100005
0.0042070686 -0.13392986 0.68200004
0.0053444104 -0.13392986 0.68200004
0.0064912564 -0.13412625 0.68300003
0.0076414375 -0.13432263 0.68400002
0.008794954 -0.13451901 0.68500006
0.0099518057 -0.13471538 0.68600005
0.011111992 -0.13491176 0.68700004
0.012275516 -0.13510813 0.68800002
0.013461884 -0.13550089 0.69000006
0.014612568 -0.13550089 0.69000006
0.01580894 -0.13589364 0.69200003
0.016987471 -0.13609003 0.69300002
0.018169338 -0.13628641 0.69400001
0.019354541 -0.13648279 0.69500005
0.020572593 -0.13687554 0.69700003
0.021766134 -0.13707191 0.69800001
0.022995863 -0.13746467 0.70000005
0.02419774 -0.13766105 0.70100003
0.025402954 -0.13785742 0.70200002
0.026649358 -0.13825019 0.70400006
0.027823389 -0.13825019 0.70400006
0.029079799 -0.13864294 0.70600003
0.030300019 -0.13883932 0.70700002
-0.074418962 -0.13512905 0.69400001
-0.073261604 -0.13512905 0.69400001
-0.072208151 -0.13532378 0.69500005
-0.071049131 -0.13532378 0.69500005
-0.069890112 -0.13532378 0.69500005
-0.068731092 -0.13532378 0.69500005
-0.067669295 -0.13551848 0.69600004
-0.066508606 -0.13551848 0.69600004
-0.065254025 -0.13532378 0.69500005
-0.064095005 -0.13532378 0.69500005
-0.062935986 -0.13532378 0.69500005
-0.061688073 -0.13512905 0.69400001
-0.060530715 -0.13512905 0.69400001
-0.059287813 -0.13493435 0.69300002
-0.058132127 -0.13493435 0.69300002
-0.056894224 -0.13473964 0.69200003
-0.055659655 -0.13454492 0.69100004
-0.054428425 -0.13435023 0.69000006
-0.053277742 -0.13435023 0.69000006
-0.052051511 -0.1341555 0.68900001
-0.050828617 -0.1339608 0.68800002
-0.049681269 -0.1339608 0.68800002
-0.048463382 -0.13376608 0.68700004
-0.047248822 -0.13357137 0.68600005
-0.046104807 -0.13357137 0.68600005
-0.044895258 -0.13337667 0.68500006
-0.043752912 -0.13337667 0.68500006
-0.042548358 -0.13318194 0.68400002
-0.033042133 -0.12325171 0.63300002
-0.031834915 -0.1226676 0.63000005
-0.030784292 -0.1226676 0.63000005
-0.029686468 -0.12247287 0.62900001
-0.028637512 -0.12247287 0.62900001
-0.027588556 -0.12247287 0.62900001
-0.026539601 -0.12247287 0.62900001
-0.02545012 -0.12227817 0.62800002
-0.024363972 -0.12208346 0.62700003
-0.023318352 -0.12208346 0.62700003
-0.022272732 -0.12208346 0.62700003
-0.02122711 -0.12208346 0.62700003
-0.02018149 -0.12208346 0.62700003
-0.019105351 -0.12188875 0.62600005
-0.018061398 -0.12188875 0.62600005
-0.017044628 -0.12208346 0.62700003
-0.015999006 -0.12208346 0.62700003
-0.014953386 -0.12208346 0.62700003
-0.013996491 -0.1228623 0.63100004
-0.013046768 -0.12383585 0.63600004
-0.012099215 -0.12500411 0.64200002
-0.010128563 -0.12714593 0.65300006
-0.0091364859 -0.1285089 0.66000003
-0.008108885 -0.12967716 0.66600001
-0.0070612724 -0.13084543 0.67200005
-0.0059671272 -0.13142955 0.67500001
-0.004848632 -0.13162428 0.67600006
-0.0037268009 -0.13181898 0.67700005
-0.0026016345 -0.13201369 0.67800003
-0.0014731326 -0.13220839 0.67900002
-0.00034129556 -0.13240311 0.68000001
0.00079271104 -0.13240311 0.68000001
0.001929551 -0.13259782 0.68100005
0.0030697263 -0.13279253 0.68200004
0.0042070686 -0.13279253 0.68200004
0.0053522466 -0.13298725 0.68300003
0.0065007601 -0.13318194 0.68400002
0.0076414375 -0.13318194 0.68400002
0.008794954 -0.13337667 0.68500006
0.0099518057 -0.13357137 0.68600005
0.011111992 -0.13376608 0.68700004
0.012275516 -0.1339608 0.68800002
0.013461884 -0.13435023 0.69000006
0.014612568 -0.13435023 0.69000006
0.01580894 -0.13473964 0.69200003
0.016987471 -0.13493435 0.69300002
0.018169338 -0.13512905 0.69400001
0.019354541 -0.13532378 0.69500005
0.020572593 -0.13571319 0.69700003
0.021766134 -0.13590789 0.69800001
0.022995863 -0.13629733 0.70000005
0.02419774 -0.13649203 0.70100003
0.025439139 -0.13688144 0.70300001
0.026649358 -0.13707617 0.70400006
0.027862908 -0.13727087 0.70500004
0.029120987 -0.13766029 0.70700002
0.030300019 -0.13766029 0.70700002
0.031523578 -0.13785499 0.708
-0.075794123 -0.13435778 0.69600004
-0.074633434 -0.13435778 0.69600004
-0.073472738 -0.13435778 0.69600004
-0.07231205 -0.13435778 0.69600004
-0.07125359 -0.13455082 0.69700003
-0.069990672 -0.13435778 0.69600004
-0.068928875 -0.13455082 0.69700003
-0.067766517 -0.13455082 0.69700003
-0.066508606 -0.13435778 0.69600004
-0.065347917 -0.13435778 0.69600004
-0.064095005 -0.13416475 0.69500005
-0.062935986 -0.13416475 0.69500005
-0.061776966 -0.13416475 0.69500005
-0.060530715 -0.13397169 0.69400001
-0.059287813 -0.13377865 0.69300002
-0.058132127 -0.13377865 0.69300002
-0.056894224 -0.13358562 0.69200003
-0.055659655 -0.13339257 0.69100004
-0.054507308 -0.13339257 0.69100004
-0.053277742 -0.13319953 0.69000006
-0.052051511 -0.13300648 0.68900001
-0.050902497 -0.13300648 0.68900001
-0.049681269 -0.13281344 0.68800002
-0.048463382 -0.13262039 0.68700004
-0.047248822 -0.13242736 0.68600005
-0.046104807 -0.13242736 0.68600005
-0.044895258 -0.13223432 0.68500006
-0.043752912 -0.13223432 0.68500006
-0.042548358 -0.13204126 0.68400002
-0.033042133 -0.12219609 0.63300002
-0.031834915 -0.12161697 0.63000005
-0.030784292 -0.12161697 0.63000005
-0.029686468 -0.12142392 0.62900001
-0.028637512 -0.12142392 0.62900001
-0.027588556 -0.12142392 0.62900001
-0.026539601 -0.12142392 0.62900001
-0.02545012 -0.12123087 0.62800002
-0.024402829 -0.12123087 0.62800002
-0.023318352 -0.12103783 0.62700003
-0.022272732 -0.12103783 0.62700003
-0.02122711 -0.12103783 0.62700003
-0.02018149 -0.12103783 0.62700003
-0.019135868 -0.12103783 0.62700003
-0.018090248 -0.12103783 0.62700003
-0.017044628 -0.12103783 0.62700003
-0.015999006 -0.12103783 0.62700003
-0.014977235 -0.12123087 0.62800002
-0.014040853 -0.12219609 0.63300002
-0.013067282 -0.12296826 0.63700002
-0.01211806 -0.12412651 0.64300001
-0.010159585 -0.12644303 0.65500003
-0.0091503281 -0.12760128 0.66100001
-0.0081210611 -0.12875955 0.66700006
-0.0070822882 -0.13011084 0.67400002
-0.0059759677 -0.13049693 0.67600006
-0.0048558046 -0.13068998 0.67700005
-0.0037323057 -0.13088301 0.67800003
-0.0026054715 -0.13107605 0.67900002
-0.0014731326 -0.13107605 0.67900002
-0.00034129556 -0.1312691 0.68000001
0.00079387682 -0.13146214 0.68100005
0.001929551 -0.13146214 0.68100005
0.0030697263 -0.13165519 0.68200004
0.0042070686 -0.13165519 0.68200004
0.0053522466 -0.13184823 0.68300003
0.0065007601 -0.13204126 0.68400002
0.0076414375 -0.13204126 0.68400002
0.008794954 -0.13223432 0.68500006
0.0099518057 -0.13242736 0.68600005
0.011111992 -0.13262039 0.68700004
0.012275516 -0.13281344 0.68800002
0.013442373 -0.13300648 0.68900001
0.014612568 -0.13319953 0.69000006
0.015786096 -0.13339257 0.69100004
0.016987471 -0.13377865 0.69300002
0.018169338 -0.13397169 0.69400001
0.019354541 -0.13416475 0.69500005
0.020572593 -0.13455082 0.69700003
0.021766134 -0.13474387 0.69800001
0.022995863 -0.13512996 0.70000005
0.02419774 -0.135323 0.70100003
0.025439139 -0.13570908 0.70300001
0.026687212 -0.13609517 0.70500004
0.02790243 -0.13628821 0.70600003
0.029120987 -0.13648126 0.70700002
0.030342877 -0.1366743 0.708
0.031568103 -0.13686734 0.70900005
-0.076011918 -0.13357985 0.69800001
-0.074955128 -0.13377123 0.69900006
-0.073683865 -0.13357985 0.69800001
-0.072519839 -0.13357985 0.69800001
-0.07135582 -0.13357985 0.69800001
-0.070191793 -0.13357985 0.69800001
-0.069027767 -0.13357985 0.69800001
-0.067863747 -0.13357985 0.69800001
-0.066604167 -0.13338847 0.69700003
-0.065347917 -0.1331971 0.69600004
-0.064187229 -0.1331971 0.69600004
-0.062935986 -0.13300572 0.69500005
-0.061776966 -0.13300572 0.69500005
-0.060530715 -0.13281435 0.69400001
-0.059373364 -0.13281435 0.69400001
-0.058132127 -0.13262297 0.69300002
-0.056976441 -0.13262297 0.69300002
-0.055740207 -0.1324316 0.69200003
-0.054507308 -0.13224022 0.69100004
-0.053277742 -0.13204886 0.69000006
-0.05212706 -0.13204886 0.69000006
-0.050902497 -0.13185747 0.68900001
-0.049681269 -0.13166609 0.68800002
-0.048463382 -0.13147472 0.68700004
-0.047248822 -0.13128336 0.68600005
-0.046104807 -0.13128336 0.68600005
-0.044895258 -0.13109198 0.68500006
-0.043752912 -0.13109198 0.68500006
-0.042548358 -0.13090059 0.68400002
-0.036208544 -0.12477659 0.65200001
-0.033042133 -0.12114047 0.63300002
-0.031834915 -0.12056635 0.63000005
-0.030784292 -0.12056635 0.63000005
-0.029733665 -0.12056635 0.63000005
-0.028683042 -0.12056635 0.63000005
-0.027588556 -0.12037496 0.62900001
-0.026539601 -0.12037496 0.62900001
-0.025490645 -0.12037496 0.62900001
-0.024402829 -0.12018359 0.62800002
-0.023355542 -0.12018359 0.62800002
-0.022308253 -0.12018359 0.62800002
-0.02122711 -0.11999222 0.62700003
-0.02018149 -0.11999222 0.62700003
-0.019135868 -0.11999222 0.62700003
-0.018090248 -0.11999222 0.62700003
-0.017044628 -0.11999222 0.62700003
-0.015999006 -0.11999222 0.62700003
-0.014953386 -0.11999222 0.62700003
-0.014018672 -0.12094909 0.63200003
-0.013067282 -0.12190597 0.63700002
-0.01211806 -0.12305421 0.64300001
-0.010159585 -0.12535071 0.65500003
-0.0091503281 -0.12649897 0.66100001
-0.0081332363 -0.1278386 0.66800004
-0.0070822882 -0.12898685 0.67400002
-0.0059759677 -0.1293696 0.67600006
-0.0048558046 -0.12956098 0.67700005
-0.0037323057 -0.12975235 0.67800003
-0.0026054715 -0.12994373 0.67900002
-0.0014753022 -0.13013509 0.68000001
-0.00034129556 -0.13013509 0.68000001
0.00079387682 -0.13032648 0.68100005
0.001929551 -0.13032648 0.68100005
0.0030697263 -0.13051786 0.68200004
0.0042070686 -0.13051786 0.68200004
0.0053522466 -0.13070923 0.68300003
0.0065007601 -0.13090059 0.68400002
0.0076526096 -0.13109198 0.68500006
0.008794954 -0.13109198 0.68500006
0.0099518057 -0.13128336 0.68600005
0.011111992 -0.13147472 0.68700004
0.012275516 -0.13166609 0.68800002
0.013442373 -0.13185747 0.68900001
0.014612568 -0.13204886 0.69000006
0.015786096 -0.13224022 0.69100004
0.016987471 -0.13262297 0.69300002
0.018169338 -0.13281435 0.69400001
0.019354541 -0.13300572 0.69500005
0.020572593 -0.13338847 0.69700003
0.02179732 -0.13377123 0.69900006
0.022995863 -0.1339626 0.70000005
0.024232259 -0.13434535 0.70200002
0.025475327 -0.1347281 0.70400006
0.026687212 -0.13491948 0.70500004
