ply
format ascii 1.0
comment PCL generated
element vertex 1290
property float x
property float y
property float z
element camera 0
property float view_px
property float view_py
property float view_pz
property float x_axisx
property float x_axisy
property float x_axisz
property float y_axisx
property float y_axisy
property float y_axisz
property float z_axisx
property float z_axisy
property float z_axisz
property float focal
property float scalex
property float scaley
property float centerx
property float centery
property int viewportx
property int viewporty
property float k1
property float k2
end_header
-0.091913983 -0.0022648333 0.77300006
-0.090507641 -0.0022619031 0.77200001
-0.089220211 -0.0022619031 0.77200001
-0.087818876 -0.0022589734 0.77100003
-0.086420879 -0.0022560435 0.77000004
-0.085026219 -0.0022531135 0.76900005
-0.083525993 -0.0022472537 0.76700002
-0.082139671 -0.0022443237 0.76600003
-0.080756672 -0.0022413938 0.76500005
-0.07927312 -0.0022355339 0.76300001
-0.077898473 -0.002232604 0.76200002
-0.076426595 -0.0022267443 0.76000005
-0.075060286 -0.0022238144 0.75900006
-0.073600084 -0.0022179543 0.75700003
-0.07214655 -0.0022120946 0.75500005
-0.070793577 -0.0022091644 0.75400001
-0.069443941 -0.0022062347 0.75300002
-0.068007089 -0.0022003748 0.75100005
-0.066665791 -0.0021974449 0.75000006
-0.065240599 -0.002191585 0.74800003
-0.063907638 -0.0021886551 0.74700004
-0.062661901 -0.0021886551 0.74700004
-0.061333947 -0.0021857251 0.74600005
-0.060009327 -0.0021827954 0.74500006
-0.058766924 -0.0021827954 0.74500006
-0.057447303 -0.0021798653 0.74400002
-0.05613102 -0.0021769353 0.74300003
-0.054891951 -0.0021769353 0.74300003
-0.053580675 -0.0021740056 0.74200004
-0.05227273 -0.0021710757 0.74100006
-0.051036991 -0.0021710757 0.74100006
-0.049734049 -0.0021681455 0.74000001
-0.048434444 -0.0021652156 0.73900002
-0.047138173 -0.0021622858 0.73800004
-0.045907442 -0.0021622858 0.73800004
-0.044616174 -0.0021593559 0.73700005
-0.043328244 -0.002156426 0.73600006
-0.042043645 -0.002153496 0.73500001
-0.040817913 -0.002153496 0.73500001
-0.039592188 -0.002153496 0.73500001
-0.038314261 -0.0021505661 0.73400003
-0.037090201 -0.0021505661 0.73400003
-0.035866141 -0.0021505661 0.73400003
-0.034642078 -0.0021505661 0.73400003
-0.033418018 -0.0021505661 0.73400003
-0.032150101 -0.0021476361 0.73300004
-0.030927708 -0.0021476361 0.73300004
-0.02966479 -0.0021447062 0.73200005
-0.028444063 -0.0021447062 0.73200005
-0.027186148 -0.0021417763 0.73100001
-0.025967091 -0.0021417763 0.73100001
-0.024748035 -0.0021417763 0.73100001
-0.02349679 -0.0021388463 0.73000002
-0.02230992 -0.0021417763 0.73100001
-0.021090863 -0.0021417763 0.73100001
-0.019871805 -0.0021417763 0.73100001
-0.018678267 -0.0021447062 0.73200005
-0.017457543 -0.0021447062 0.73200005
-0.016258998 -0.0021476361 0.73300004
-0.015036606 -0.0021476361 0.73300004
-0.013833059 -0.0021505661 0.73400003
-0.012626178 -0.002153496 0.73500001
-0.011400449 -0.002153496 0.73500001
-0.010174722 -0.002153496 0.73500001
-0.00896117 -0.002156426 0.73600006
-0.0077337748 -0.002156426 0.73600006
-0.0065063792 -0.002156426 0.73600006
-0.0052861562 -0.0021593559 0.73700005
-0.0040570935 -0.0021593559 0.73700005
-0.0028280304 -0.0021593559 0.73700005
-0.0015989674 -0.0021593559 0.73700005
-0.00037040608 -0.0021622858 0.73800004
0.00086032465 -0.0021622858 0.73800004
0.0020910553 -0.0021622858 0.73800004
0.003326287 -0.0021652156 0.73900002
0.0045586857 -0.0021652156 0.73900002
0.0057989201 -0.0021681455 0.74000001
0.0070424904 -0.0021710757 0.74100006
0.0082893958 -0.0021740056 0.74200004
0.0095267966 -0.0021740056 0.74200004
0.010778706 -0.0021769353 0.74300003
0.012033948 -0.0021798653 0.74400002
0.013292529 -0.0021827954 0.74500006
0.014554442 -0.0021857251 0.74600005
0.015819693 -0.0021886551 0.74700004
0.017088277 -0.002191585 0.74800003
0.01838471 -0.0021974449 0.75000006
0.019661633 -0.0022003748 0.75100005
0.020969739 -0.0022062347 0.75300002
0.022255 -0.0022091644 0.75400001
0.023543598 -0.0022120946 0.75500005
0.024868382 -0.0022179543 0.75700003
0.026165316 -0.0022208842 0.75800002
0.027465587 -0.0022238144 0.75900006
0.028769193 -0.0022267443 0.76000005
0.030076133 -0.002229674 0.76100004
0.031386409 -0.002232604 0.76200002
0.03274288 -0.0022384638 0.76400006
0.034061495 -0.0022413938 0.76500005
0.035383444 -0.0022443237 0.76600003
0.036708727 -0.0022472537 0.76700002
0.037987821 -0.0022472537 0.76700002
0.039369307 -0.0022531135 0.76900005
-0.090507641 -0.00097447232 0.77200001
-0.089220211 -0.00097447232 0.77200001
-0.087818876 -0.00097321003 0.77100003
-0.086533114 -0.00097321003 0.77100003
-0.085026219 -0.00097068556 0.76900005
-0.083634891 -0.00096942321 0.76800001
-0.082139671 -0.00096689869 0.76600003
-0.080756672 -0.00096563646 0.76500005
-0.079377025 -0.00096437422 0.76400006
-0.077898473 -0.00096184964 0.76200002
-0.076527156 -0.00096058735 0.76100004
-0.075060286 -0.00095806288 0.75900006
-0.073697306 -0.00095680053 0.75800002
-0.072242111 -0.00095427601 0.75600004
-0.070887469 -0.00095301378 0.75500005
-0.069443941 -0.00095048919 0.75300002
-0.068097644 -0.0009492269 0.75200003
-0.066754676 -0.00094796467 0.75100005
-0.06541504 -0.00094670244 0.75000006
-0.063993193 -0.00094417785 0.74800003
-0.062661901 -0.00094291556 0.74700004
-0.061333947 -0.00094165333 0.74600005
-0.060089875 -0.00094165333 0.74600005
-0.058766924 -0.0009403911 0.74500006
-0.057524521 -0.0009403911 0.74500006
-0.056206565 -0.00093912875 0.74400002
-0.054891951 -0.00093786651 0.74300003
-0.053652883 -0.00093786651 0.74300003
-0.052343272 -0.00093660422 0.74200004
-0.051036991 -0.00093534199 0.74100006
-0.04980126 -0.00093534199 0.74100006
-0.048499983 -0.00093407964 0.74000001
-0.047202043 -0.00093281741 0.73900002
-0.045907442 -0.00093155517 0.73800004
-0.044616174 -0.00093029288 0.73700005
-0.043387111 -0.00093029288 0.73700005
-0.042100847 -0.00092903065 0.73600006
-0.040817913 -0.0009277683 0.73500001
-0.039592188 -0.0009277683 0.73500001
-0.038366459 -0.0009277683 0.73500001
-0.037140731 -0.0009277683 0.73500001
-0.035915006 -0.0009277683 0.73500001
-0.034689274 -0.0009277683 0.73500001
-0.033463549 -0.0009277683 0.73500001
-0.032193959 -0.00092650607 0.73400003
-0.030969901 -0.00092650607 0.73400003
-0.029705316 -0.00092524383 0.73300004
-0.028482921 -0.00092524383 0.73300004
-0.027223339 -0.00092398154 0.73200005
-0.026002616 -0.00092398154 0.73200005
-0.02478189 -0.00092398154 0.73200005
-0.023528978 -0.00092271925 0.73100001
-0.022340441 -0.00092398154 0.73200005
-0.021119718 -0.00092398154 0.73200005
-0.01989899 -0.00092398154 0.73200005
-0.018703783 -0.00092524383 0.73300004
-0.01748139 -0.00092524383 0.73300004
-0.016281178 -0.00092650607 0.73400003
-0.01505712 -0.00092650607 0.73400003
-0.013851904 -0.0009277683 0.73500001
-0.012626178 -0.0009277683 0.73500001
-0.011415961 -0.00092903065 0.73600006
-0.010202409 -0.00093029288 0.73700005
-0.0089733461 -0.00093029288 0.73700005
-0.0077442825 -0.00093029288 0.73700005
-0.0065152193 -0.00093029288 0.73700005
-0.0052933288 -0.00093155517 0.73800004
-0.0040625981 -0.00093155517 0.73800004
-0.0028318677 -0.00093155517 0.73800004
-0.0016011369 -0.00093155517 0.73800004
-0.00037090798 -0.00093281741 0.73900002
0.00086149038 -0.00093281741 0.73900002
0.0020938886 -0.00093281741 0.73900002
0.0033307879 -0.00093407964 0.74000001
0.0045710229 -0.00093534199 0.74100006
0.0058067567 -0.00093534199 0.74100006
0.0070519946 -0.00093660422 0.74200004
0.008300568 -0.00093786651 0.74300003
0.0095396359 -0.00093786651 0.74300003
0.010793212 -0.00093912875 0.74400002
0.012050124 -0.0009403911 0.74500006
0.013310371 -0.00094165333 0.74600005
0.014573952 -0.00094291556 0.74700004
0.015840869 -0.00094417785 0.74800003
0.017133968 -0.00094670244 0.75000006
0.018409222 -0.00094796467 0.75100005
0.019687815 -0.0009492269 0.75200003
0.020997588 -0.00095175143 0.75400001
0.022284517 -0.00095301378 0.75500005
0.023574783 -0.00095427601 0.75600004
0.024901234 -0.00095680053 0.75800002
0.026199836 -0.00095806288 0.75900006
0.027501773 -0.00095932512 0.76000005
0.028807046 -0.00096058735 0.76100004
0.030115655 -0.00096184964 0.76200002
0.031427599 -0.00096311187 0.76300001
0.03274288 -0.00096437422 0.76400006
0.03410602 -0.00096689869 0.76600003
0.035429634 -0.00096816098 0.76700002
0.036708727 -0.00096816098 0.76700002
0.038086876 -0.00097068556 0.76900005
0.039369307 -0.00097068556 0.76900005
-0.091913983 0.00031336411 0.77300006
-0.090507641 0.00031295873 0.77200001
-0.089220211 0.00031295873 0.77200001
-0.087818876 0.00031255334 0.77100003
-0.086420879 0.00031214795 0.77000004
-0.085136786 0.00031214795 0.77000004
-0.083634891 0.00031133718 0.76800001
-0.0822469 0.00031093179 0.76700002
-0.080862239 0.0003105264 0.76600003
-0.079480916 0.00031012102 0.76500005
-0.078000702 0.00030931024 0.76300001
-0.076527156 0.00030849947 0.76100004
-0.075159177 0.00030809408 0.76000005
-0.073794536 0.00030768872 0.75900006
-0.072337665 0.00030687792 0.75700003
-0.070887469 0.00030606714 0.75500005
-0.069536164 0.00030566176 0.75400001
-0.068188198 0.00030525637 0.75300002
-0.066843562 0.00030485098 0.75200003
-0.065502264 0.0003044456 0.75100005
-0.064078741 0.00030363482 0.74900001
-0.062745787 0.00030322943 0.74800003
-0.061416164 0.00030282405 0.74700004
-0.060089875 0.00030241869 0.74600005
-0.058845803 0.00030241869 0.74600005
-0.057524521 0.0003020133 0.74500006
-0.056282118 0.0003020133 0.74500006
-0.054965831 0.00030160788 0.74400002
-0.053652883 0.0003012025 0.74300003
-0.052413814 0.0003012025 0.74300003
-0.051105868 0.00030079711 0.74200004
-0.04980126 0.00030039175 0.74100006
-0.048499983 0.00029998634 0.74000001
-0.047265917 0.00029998634 0.74000001
-0.045907442 0.00029917556 0.73800004
-0.04467671 0.00029917556 0.73800004
-0.043387111 0.0002987702 0.73700005
-0.042158049 0.0002987702 0.73700005
-0.040873449 0.00029836482 0.73600006
-0.039592188 0.0002979594 0.73500001
-0.038366459 0.0002979594 0.73500001
-0.037140731 0.0002979594 0.73500001
-0.035915006 0.0002979594 0.73500001
-0.034689274 0.0002979594 0.73500001
-0.033463549 0.0002979594 0.73500001
-0.03223782 0.0002979594 0.73500001
-0.031012094 0.0002979594 0.73500001
-0.029745841 0.00029755401 0.73400003
-0.028521778 0.00029755401 0.73400003
-0.027260529 0.00029714862 0.73300004
-0.026038138 0.00029714862 0.73300004
-0.024815746 0.00029714862 0.73300004
-0.023593353 0.00029714862 0.73300004
-0.022370961 0.00029714862 0.73300004
-0.021148568 0.00029714862 0.73300004
-0.019926175 0.00029714862 0.73300004
-0.018729299 0.00029755401 0.73400003
-0.01750524 0.00029755401 0.73400003
-0.01630336 0.0002979594 0.73500001
-0.015077633 0.0002979594 0.73500001
-0.013870751 0.00029836482 0.73600006
-0.012660535 0.0002987702 0.73700005
-0.011431471 0.0002987702 0.73700005
-0.010216252 0.00029917556 0.73800004
-0.0089855213 0.00029917556 0.73800004
-0.0077547901 0.00029917556 0.73800004
-0.0065240595 0.00029917556 0.73800004
-0.0053005014 0.00029958095 0.73900002
-0.0040681032 0.00029958095 0.73900002
-0.0028357047 0.00029958095 0.73900002
-0.0016033064 0.00029958095 0.73900002
-0.00037140987 0.00029998634 0.74000001
0.0008626561 0.00029998634 0.74000001
0.0020967219 0.00029998634 0.74000001
0.0033352892 0.00030039175 0.74100006
0.0045771915 0.00030079711 0.74200004
0.0058145928 0.00030079711 0.74200004
0.0070614982 0.0003012025 0.74300003
0.0083117392 0.00030160788 0.74400002
0.0095524751 0.00030160788 0.74400002
0.01080772 0.0003020133 0.74500006
0.012066298 0.00030241869 0.74600005
0.013328213 0.00030282405 0.74700004
0.014593462 0.00030322943 0.74800003
0.015862048 0.00030363482 0.74900001
0.017156813 0.0003044456 0.75100005
0.018433735 0.00030485098 0.75200003
0.019713994 0.00030525637 0.75300002
0.021025436 0.00030606714 0.75500005
0.022314033 0.00030647253 0.75600004
0.023637148 0.00030728331 0.75800002
0.024934085 0.00030768872 0.75900006
0.026234355 0.00030809408 0.76000005
0.027537961 0.00030849947 0.76100004
0.0288449 0.00030890486 0.76200002
0.030155174 0.00030931024 0.76300001
0.03146879 0.00030971563 0.76400006
0.032785736 0.00031012102 0.76500005
0.034150541 0.00031093179 0.76700002
0.035429634 0.00031093179 0.76700002
0.036804449 0.00031174257 0.76900005
0.038086876 0.00031174257 0.76900005
0.0394205 0.00031214795 0.77000004
0.040757459 0.00031255334 0.77100003
-0.091913983 0.001602463 0.77300006
-0.090507641 0.0016003898 0.77200001
-0.089220211 0.0016003898 0.77200001
-0.08793278 0.0016003898 0.77200001
-0.086533114 0.0015983168 0.77100003
-0.085136786 0.0015962437 0.77000004
-0.083743796 0.0015941707 0.76900005
-0.0822469 0.0015900246 0.76700002
-0.080862239 0.0015879516 0.76600003
-0.079480916 0.0015858785 0.76500005
-0.078102931 0.0015838055 0.76400006
-0.076627716 0.0015796594 0.76200002
-0.075258069 0.0015775864 0.76100004
-0.073794536 0.0015734403 0.75900006
-0.072433218 0.0015713671 0.75800002
-0.070981361 0.0015672211 0.75600004
-0.069628388 0.0015651481 0.75500005
-0.068278752 0.001563075 0.75400001
-0.066932447 0.001561002 0.75300002
-0.065502264 0.001556856 0.75100005
-0.064164303 0.001554783 0.75000006
-0.062829673 0.0015527097 0.74900001
-0.061498381 0.0015506367 0.74800003
-0.060170423 0.0015485637 0.74700004
-0.058845803 0.0015464907 0.74600005
-0.057601735 0.0015464907 0.74600005
-0.056282118 0.0015444177 0.74500006
-0.055039711 0.0015444177 0.74500006
-0.053725094 0.0015423446 0.74400002
-0.052413814 0.0015402716 0.74300003
-0.051105868 0.0015381986 0.74200004
-0.049868464 0.0015381986 0.74200004
-0.048565526 0.0015361256 0.74100006
-0.047265917 0.0015340524 0.74000001
-0.045969646 0.0015319793 0.73900002
-0.04467671 0.0015299063 0.73800004
-0.043445982 0.0015299063 0.73800004
-0.042158049 0.0015278333 0.73700005
-0.040928986 0.0015278333 0.73700005
-0.039699923 0.0015278333 0.73700005
-0.038470861 0.0015278333 0.73700005
-0.037241798 0.0015278333 0.73700005
-0.035963871 0.0015257603 0.73600006
-0.034736473 0.0015257603 0.73600006
-0.033554606 0.0015278333 0.73700005
-0.032281682 0.0015257603 0.73600006
-0.031054288 0.0015257603 0.73600006
-0.029786367 0.0015236872 0.73500001
-0.028560637 0.0015236872 0.73500001
-0.027297718 0.0015216141 0.73400003
-0.026073659 0.0015216141 0.73400003
-0.024849599 0.0015216141 0.73400003
-0.02362554 0.0015216141 0.73400003
-0.02240148 0.0015216141 0.73400003
-0.02117742 0.0015216141 0.73400003
-0.019953359 0.0015216141 0.73400003
-0.018754816 0.0015236872 0.73500001
-0.017529089 0.0015236872 0.73500001
-0.01630336 0.0015236872 0.73500001
-0.015098148 0.0015257603 0.73600006
-0.013889598 0.0015278333 0.73700005
-0.012677713 0.0015299063 0.73800004
-0.011446983 0.0015299063 0.73800004
-0.010216252 0.0015299063 0.73800004
-0.0089855213 0.0015299063 0.73800004
-0.0077652978 0.0015319793 0.73900002
-0.0065328996 0.0015319793 0.73900002
-0.0053005014 0.0015319793 0.73900002
-0.0040736077 0.0015340524 0.74000001
-0.002839542 0.0015340524 0.74000001
-0.0016054759 0.0015340524 0.74000001
-0.00037140987 0.0015340524 0.74000001
0.00086382194 0.0015361256 0.74100006
0.0020995555 0.0015361256 0.74100006
0.0033397903 0.0015381986 0.74200004
0.0045771915 0.0015381986 0.74200004
0.0058224294 0.0015402716 0.74300003
0.0070710024 0.0015423446 0.74400002
0.0083117392 0.0015423446 0.74400002
0.0095653152 0.0015444177 0.74500006
0.010822226 0.0015464907 0.74600005
0.012082472 0.0015485637 0.74700004
0.013328213 0.0015485637 0.74700004
0.014612972 0.0015527097 0.74900001
0.015883226 0.001554783 0.75000006
0.017179659 0.001558929 0.75200003
0.018458247 0.001561002 0.75300002
0.019740175 0.001563075 0.75400001
0.021025436 0.0015651481 0.75500005
0.022343548 0.0015692941 0.75700003
0.023668334 0.0015734403 0.75900006
0.024966937 0.0015755133 0.76000005
0.026268873 0.0015775864 0.76100004
0.027574146 0.0015796594 0.76200002
0.028882753 0.0015817324 0.76300001
0.0301947 0.0015838055 0.76400006
0.031509981 0.0015858785 0.76500005
0.032828595 0.0015879516 0.76600003
0.034195065 0.0015920976 0.76800001
0.035522021 0.0015941707 0.76900005
0.036852308 0.0015962437 0.77000004
0.038136404 0.0015962437 0.77000004
0.03952289 0.0016003898 0.77200001
0.040810321 0.0016003898 0.77200001
-0.092032887 0.0028953024 0.77400005
-0.090624884 0.0028915617 0.77300006
-0.089335784 0.0028915617 0.77300006
-0.08793278 0.0028878208 0.77200001
-0.08664535 0.0028878208 0.77200001
-0.085247353 0.0028840802 0.77100003
-0.083852693 0.0028803395 0.77000004
-0.082461365 0.0028765989 0.76900005
-0.080967799 0.0028691173 0.76700002
-0.079584815 0.0028653766 0.76600003
-0.078205161 0.002861636 0.76500005
-0.076728277 0.0028541544 0.76300001
-0.075258069 0.0028466731 0.76100004
-0.073891759 0.0028429325 0.76000005
-0.072528787 0.0028391918 0.75900006
-0.071075246 0.0028317103 0.75700003
-0.069720611 0.0028279696 0.75600004
-0.068369307 0.002824229 0.75500005
-0.066932447 0.0028167474 0.75300002
-0.06558948 0.0028130068 0.75200003
-0.064249851 0.0028092661 0.75100005
-0.062913559 0.0028055254 0.75000006
-0.061580595 0.0028017848 0.74900001
-0.060250971 0.0027980441 0.74800003
-0.058924686 0.0027943035 0.74700004
-0.057601735 0.0027905628 0.74600005
-0.056357663 0.0027905628 0.74600005
-0.055039711 0.0027868222 0.74500006
-0.053797308 0.0027868222 0.74500006
-0.05248436 0.0027830813 0.74400002
-0.051174741 0.0027793406 0.74300003
-0.049868464 0.0027755999 0.74200004
-0.048631065 0.0027755999 0.74200004
-0.047329791 0.0027718593 0.74100006
-0.046031851 0.0027681184 0.74000001
-0.04473725 0.0027643777 0.73900002
-0.043445982 0.0027606371 0.73800004
-0.04221525 0.0027606371 0.73800004
-0.040984519 0.0027606371 0.73800004
-0.039753787 0.0027606371 0.73800004
-0.038470861 0.0027568964 0.73700005
-0.037241798 0.0027568964 0.73700005
-0.036012735 0.0027568964 0.73700005
-0.034783669 0.0027568964 0.73700005
-0.033554606 0.0027568964 0.73700005
-0.032325543 0.0027568964 0.73700005
-0.031096481 0.0027568964 0.73700005
-0.029826894 0.0027531558 0.73600006
-0.028599495 0.0027531558 0.73600006
-0.02733491 0.0027494149 0.73500001
-0.026109181 0.0027494149 0.73500001
-0.024883455 0.0027494149 0.73500001
-0.023657728 0.0027494149 0.73500001
-0.022431999 0.0027494149 0.73500001
-0.021206271 0.0027494149 0.73500001
-0.019980542 0.0027494149 0.73500001
-0.018780334 0.0027531558 0.73600006
-0.017576788 0.0027568964 0.73700005
-0.016347723 0.0027568964 0.73700005
-0.015118661 0.0027568964 0.73700005
-0.013908443 0.0027606371 0.73800004
-0.012677713 0.0027606371 0.73800004
-0.011462493 0.0027643777 0.73900002
-0.010230095 0.0027643777 0.73900002
-0.0089976965 0.0027643777 0.73900002
-0.0077652978 0.0027643777 0.73900002
-0.0065417397 0.0027681184 0.74000001
-0.0053076735 0.0027681184 0.74000001
-0.0040736077 0.0027681184 0.74000001
-0.0028433793 0.0027718593 0.74100006
-0.0016076455 0.0027718593 0.74100006
-0.0003719118 0.0027718593 0.74100006
0.00086498767 0.0027755999 0.74200004
0.002102389 0.0027755999 0.74200004
0.0033442914 0.0027793406 0.74300003
0.0045833606 0.0027793406 0.74300003
0.0058302656 0.0027830813 0.74400002
0.007080507 0.0027868222 0.74500006
0.0083229113 0.0027868222 0.74500006
0.0095781544 0.0027905628 0.74600005
0.010836734 0.0027943035 0.74700004
0.012082472 0.0027943035 0.74700004
0.013346055 0.0027980441 0.74800003
0.014632482 0.0028055254 0.75000006
0.015904402 0.0028092661 0.75100005
0.017202502 0.0028167474 0.75300002
0.018482761 0.0028204881 0.75400001
0.019766357 0.002824229 0.75500005
0.021053284 0.0028279696 0.75600004
0.022373063 0.0028354509 0.75800002
0.023668334 0.0028391918 0.75900006
0.024999788 0.0028466731 0.76100004
0.026303392 0.0028504138 0.76200002
0.027610332 0.0028541544 0.76300001
0.02892061 0.0028578953 0.76400006
0.03023422 0.002861636 0.76500005
0.031551167 0.0028653766 0.76600003
0.032914307 0.002872858 0.76800001
0.034239594 0.0028765989 0.76900005
0.035568215 0.0028803395 0.77000004
0.036900166 0.0028840802 0.77100003
0.038185932 0.0028840802 0.77100003
0.03952289 0.0028878208 0.77200001
-0.092032887 0.0041860687 0.77400005
-0.090742119 0.0041860687 0.77400005
-0.08945135 0.0041860687 0.77400005
-0.088046685 0.00418066 0.77300006
-0.086757585 0.00418066 0.77300006
-0.085357919 0.0041752518 0.77200001
-0.083852693 0.004164435 0.77000004
-0.082461365 0.0041590268 0.76900005
-0.081073366 0.0041536181 0.76800001
-0.079688706 0.0041482099 0.76700002
-0.078205161 0.0041373931 0.76500005
-0.076828845 0.0041319849 0.76400006
-0.07535696 0.0041211681 0.76200002
-0.073988982 0.0041157599 0.76100004
-0.072624341 0.0041103517 0.76000005
-0.071169138 0.0040995348 0.75800002
-0.069812834 0.0040941262 0.75700003
-0.068459861 0.004088718 0.75600004
-0.06702134 0.0040779011 0.75400001
-0.065676697 0.0040724929 0.75300002
-0.064335406 0.0040670848 0.75200003
-0.062997445 0.0040616761 0.75100005
-0.061662816 0.0040562679 0.75000006
-0.06033152 0.0040508593 0.74900001
-0.059003565 0.0040454511 0.74800003
-0.057678945 0.0040400429 0.74700004
-0.056357663 0.0040346347 0.74600005
-0.055113591 0.0040346347 0.74600005
-0.053797308 0.004029226 0.74500006
-0.052554905 0.004029226 0.74500006
-0.051243618 0.0040238178 0.74400002
-0.049935672 0.0040184092 0.74300003
-0.048631065 0.004013001 0.74200004
-0.047393665 0.004013001 0.74200004
-0.04609406 0.0040075928 0.74100006
-0.044797786 0.0040021841 0.74000001
-0.043504849 0.003996776 0.73900002
-0.042272452 0.003996776 0.73900002
-0.041040052 0.003996776 0.73900002
-0.039753787 0.0039913678 0.73800004
-0.038523059 0.0039913678 0.73800004
-0.037292328 0.0039913678 0.73800004
-0.036061596 0.0039913678 0.73800004
-0.034830865 0.0039913678 0.73800004
-0.033600133 0.0039913678 0.73800004
-0.032369405 0.0039913678 0.73800004
-0.031096481 0.0039859591 0.73700005
-0.029867418 0.0039859591 0.73700005
-0.028638354 0.0039859591 0.73700005
-0.027409291 0.0039859591 0.73700005
-0.026144706 0.0039805509 0.73600006
-0.024917312 0.0039805509 0.73600006
-0.023657728 0.0039751423 0.73500001
-0.022462521 0.0039805509 0.73600006
-0.021235125 0.0039805509 0.73600006
-0.020034913 0.0039859591 0.73700005
-0.01880585 0.0039859591 0.73700005
-0.017576788 0.0039859591 0.73700005
-0.016369905 0.0039913678 0.73800004
-0.015139175 0.0039913678 0.73800004
-0.013908443 0.0039913678 0.73800004
-0.012694892 0.003996776 0.73900002
-0.011462493 0.003996776 0.73900002
-0.010230095 0.003996776 0.73900002
-0.0090098716 0.0040021841 0.74000001
-0.0077758054 0.0040021841 0.74000001
-0.0065417397 0.0040021841 0.74000001
-0.0053148465 0.0040075928 0.74100006
-0.0040791128 0.0040075928 0.74100006
-0.0028472166 0.004013001 0.74200004
-0.0016098152 0.004013001 0.74200004
-0.00037241369 0.004013001 0.74200004
0.00086615339 0.0040184092 0.74300003
0.0021052223 0.0040184092 0.74300003
0.0033442914 0.0040184092 0.74300003
0.0045895292 0.0040238178 0.74400002
0.0058381022 0.004029226 0.74500006
0.007080507 0.004029226 0.74500006
0.0083340826 0.0040346347 0.74600005
0.0095909936 0.0040400429 0.74700004
0.01085124 0.0040454511 0.74800003
0.012098647 0.0040454511 0.74800003
0.01338174 0.0040562679 0.75000006
0.014651992 0.0040616761 0.75100005
0.015925581 0.0040670848 0.75200003
0.017225347 0.0040779011 0.75400001
0.018507274 0.0040833098 0.75500005
0.019792536 0.004088718 0.75600004
0.021108981 0.0040995348 0.75800002
0.022402581 0.004104943 0.75900006
0.023699516 0.0041103517 0.76000005
0.024999788 0.0041157599 0.76100004
0.02633791 0.0041265762 0.76300001
0.027646521 0.0041319849 0.76400006
0.028958464 0.0041373931 0.76500005
0.030313263 0.0041482099 0.76700002
0.031633548 0.0041536181 0.76800001
0.032957166 0.0041590268 0.76900005
0.034284119 0.004164435 0.77000004
0.035614405 0.0041698432 0.77100003
0.036948029 0.0041752518 0.77200001
0.038235459 0.0041752518 0.77200001
0.039625283 0.0041860687 0.77400005
-0.090859354 0.0054839109 0.77500004
-0.08945135 0.0054768352 0.77400005
-0.088160589 0.0054768352 0.77400005
-0.086869821 0.0054768352 0.77400005
-0.085468493 0.005469759 0.77300006
-0.083961591 0.0054556071 0.77100003
-0.082568593 0.0054485309 0.77000004
-0.081178933 0.0054414552 0.76900005
-0.079792604 0.0054343785 0.76800001
-0.07830739 0.0054202266 0.76600003
-0.076929405 0.0054131509 0.76500005
-0.075554751 0.0054060752 0.76400006
-0.074086212 0.0053919228 0.76200002
-0.072719902 0.0053848466 0.76100004
-0.07126303 0.0053706951 0.75900006
-0.069905058 0.0053636185 0.75800002
-0.068550415 0.0053565428 0.75700003
-0.067110226 0.0053423909 0.75500005
-0.065763921 0.0053353147 0.75400001
-0.064420953 0.0053282385 0.75300002
-0.063081324 0.0053211628 0.75200003
-0.061745033 0.0053140866 0.75100005
-0.060412075 0.0053070108 0.75000006
-0.059082448 0.0052999347 0.74900001
-0.057756159 0.0052928585 0.74800003
-0.056433208 0.0052857827 0.74700004
-0.055113591 0.0052787066 0.74600005
-0.053869519 0.0052787066 0.74600005
-0.052554905 0.0052716308 0.74500006
-0.051243618 0.0052645546 0.74400002
-0.05000288 0.0052645546 0.74400002
-0.048696604 0.0052574784 0.74300003
-0.047393665 0.0052504027 0.74200004
-0.046156265 0.0052504027 0.74200004
-0.044858325 0.0052433265 0.74100006
-0.04356372 0.0052362503 0.74000001
-0.042329654 0.0052362503 0.74000001
-0.041040052 0.0052291742 0.73900002
-0.039807655 0.0052291742 0.73900002
-0.038575258 0.0052291742 0.73900002
-0.037342858 0.0052291742 0.73900002
-0.036110461 0.0052291742 0.73900002
-0.03487806 0.0052291742 0.73900002
-0.033645663 0.0052291742 0.73900002
-0.032369405 0.0052220984 0.73800004
-0.031138673 0.0052220984 0.73800004
-0.029907944 0.0052220984 0.73800004
-0.028638354 0.0052150227 0.73700005
-0.027409291 0.0052150227 0.73700005
-0.026180228 0.0052150227 0.73700005
-0.024951166 0.0052150227 0.73700005
-0.023722103 0.0052150227 0.73700005
-0.02249304 0.0052150227 0.73700005
-0.021263978 0.0052150227 0.73700005
-0.020034913 0.0052150227 0.73700005
-0.018831367 0.0052220984 0.73800004
-0.017600637 0.0052220984 0.73800004
-0.016369905 0.0052220984 0.73800004
-0.015159688 0.0052291742 0.73900002
-0.013927289 0.0052291742 0.73900002
-0.012694892 0.0052291742 0.73900002
-0.011478003 0.0052362503 0.74000001
-0.010243938 0.0052362503 0.74000001
-0.0090098716 0.0052362503 0.74000001
-0.007786314 0.0052433265 0.74100006
-0.0065505803 0.0052433265 0.74100006
-0.0053220191 0.0052504027 0.74200004
-0.0040846178 0.0052504027 0.74200004
-0.0028472166 0.0052504027 0.74200004
-0.0016119847 0.0052574784 0.74300003
-0.00037291559 0.0052574784 0.74300003
0.00086731912 0.0052645546 0.74400002
0.0021080556 0.0052645546 0.74400002
0.0033532935 0.0052716308 0.74500006
0.0045956979 0.0052716308 0.74500006
0.0058459383 0.0052787066 0.74600005
0.0070900107 0.0052787066 0.74600005
0.0083452547 0.0052857827 0.74700004
0.0096038328 0.0052928585 0.74800003
0.010865747 0.0052999347 0.74900001
0.012130997 0.0053070108 0.75000006
0.013399582 0.0053140866 0.75100005
0.014671502 0.0053211628 0.75200003
0.015946757 0.0053282385 0.75300002
0.017248195 0.0053423909 0.75500005
0.018531788 0.0053494666 0.75600004
0.019844897 0.0053636185 0.75800002
0.02113683 0.0053706951 0.75900006
0.022432096 0.0053777709 0.76000005
0.023730699 0.0053848466 0.76100004
0.025065489 0.0053989985 0.76300001
0.026372431 0.0054060752 0.76400006
0.027718892 0.0054202266 0.76600003
0.029034171 0.0054273028 0.76700002
0.030352784 0.0054343785 0.76800001
0.031715926 0.0054485309 0.77000004
0.033042878 0.0054556071 0.77100003
0.034373168 0.0054626828 0.77200001
0.035752982 0.0054768352 0.77400005
0.03704375 0.0054768352 0.77400005
0.038334515 0.0054768352 0.77400005
0.039727673 0.0054909871 0.77600002
-0.092270695 0.0067850887 0.77600002
-0.090859354 0.006776345 0.77500004
-0.089566924 0.006776345 0.77500004
-0.088274486 0.006776345 0.77500004
-0.086869821 0.0067676017 0.77400005
-0.08557906 0.0067676017 0.77400005
-0.084179394 0.006758858 0.77300006
-0.08267583 0.0067413705 0.77100003
-0.081284493 0.0067326268 0.77000004
-0.079896502 0.0067238831 0.76900005
-0.078511842 0.0067151394 0.76800001
-0.077029966 0.0066976519 0.76600003
-0.07565365 0.0066889087 0.76500005
-0.074183434 0.0066714208 0.76300001
-0.072815455 0.0066626775 0.76200002
-0.071450815 0.0066539338 0.76100004
-0.069997281 0.0066364468 0.75900006
-0.06864097 0.0066277026 0.75800002
-0.067199118 0.0066102156 0.75600004
-0.065851144 0.0066014719 0.75500005
-0.064506508 0.0065927277 0.75400001
-0.06316521 0.0065839845 0.75300002
-0.06182725 0.0065752408 0.75200003
-0.060492624 0.006566497 0.75100005
-0.059161332 0.0065577538 0.75000006
-0.057756159 0.0065402659 0.74800003
-0.056433208 0.0065315226 0.74700004
-0.055187467 0.0065315226 0.74700004
-0.053869519 0.0065227789 0.74600005
-0.052554905 0.0065140352 0.74500006
-0.051312495 0.0065140352 0.74500006
-0.05000288 0.006505291 0.74400002
-0.048762143 0.006505291 0.74400002
-0.047457535 0.0064965477 0.74300003
-0.046156265 0.006487804 0.74200004
-0.044918861 0.006487804 0.74200004
-0.043622591 0.0064790607 0.74100006
-0.04238686 0.0064790607 0.74100006
-0.041095585 0.0064703166 0.74000001
-0.039861519 0.0064703166 0.74000001
-0.038627457 0.0064703166 0.74000001
-0.037393391 0.0064703166 0.74000001
-0.036110461 0.0064615728 0.73900002
-0.03487806 0.0064615728 0.73900002
-0.033645663 0.0064615728 0.73900002
-0.032413267 0.0064615728 0.73900002
-0.031138673 0.0064528291 0.73800004
-0.029907944 0.0064528291 0.73800004
-0.02867721 0.0064528291 0.73800004
-0.02744648 0.0064528291 0.73800004
-0.026215751 0.0064528291 0.73800004
-0.024985021 0.0064528291 0.73800004
-0.023754289 0.0064528291 0.73800004
-0.022523558 0.0064528291 0.73800004
-0.021292828 0.0064528291 0.73800004
-0.020062096 0.0064528291 0.73800004
-0.018831367 0.0064528291 0.73800004
-0.017624486 0.0064615728 0.73900002
-0.016392086 0.0064615728 0.73900002
-0.015159688 0.0064615728 0.73900002
-0.013927289 0.0064615728 0.73900002
-0.01271207 0.0064703166 0.74000001
-0.011478003 0.0064703166 0.74000001
-0.010243938 0.0064703166 0.74000001
-0.0090220477 0.0064790607 0.74100006
-0.007786314 0.0064790607 0.74100006
-0.0065594204 0.006487804 0.74200004
-0.0053220191 0.006487804 0.74200004
-0.0040901224 0.0064965477 0.74300003
-0.0028510536 0.0064965477 0.74300003
-0.0016141542 0.006505291 0.74400002
-0.00037341748 0.006505291 0.74400002
0.0008684849 0.0065140352 0.74500006
0.0021108892 0.0065140352 0.74500006
0.0033577946 0.0065227789 0.74600005
0.0046018669 0.0065227789 0.74600005
0.005853775 0.0065315226 0.74700004
0.0071090185 0.0065402659 0.74800003
0.0083564259 0.0065402659 0.74800003
0.0096295122 0.0065577538 0.75000006
0.010880254 0.0065577538 0.75000006
0.012147171 0.006566497 0.75100005
0.013417425 0.0065752408 0.75200003
0.014691011 0.0065839845 0.75300002
0.015989114 0.0066014719 0.75500005
0.01727104 0.0066102156 0.75600004
0.018580813 0.0066277026 0.75800002
0.019871078 0.0066364468 0.75900006
0.021164678 0.0066451901 0.76000005
0.022461612 0.0066539338 0.76100004
0.023793066 0.0066714208 0.76300001
0.025131192 0.0066889087 0.76500005
0.026441468 0.0066976519 0.76600003
0.027755078 0.0067063957 0.76700002
0.02910988 0.0067238831 0.76900005
0.030431829 0.0067326268 0.77000004
0.031757116 0.0067413705 0.77100003
0.033128597 0.006758858 0.77300006
0.034506742 0.006776345 0.77500004
0.035799176 0.006776345 0.77500004
0.037139468 0.0067850887 0.77600002
0.038483098 0.0067938324 0.77700001
0.03977887 0.0067938324 0.77700001
-0.092389598 0.0080896011 0.77700001
-0.091093831 0.0080896011 0.77700001
-0.08968249 0.0080791898 0.77600002
-0.088388391 0.0080791898 0.77600002
-0.087094292 0.0080791898 0.77600002
-0.085689619 0.0080687786 0.77500004
-0.084288292 0.0080583673 0.77400005
-0.082890294 0.008047956 0.77300006
-0.08149562 0.0080375448 0.77200001
-0.080104299 0.0080271335 0.77100003
-0.078614078 0.008006311 0.76900005
-0.077130526 0.0079854876 0.76700002
-0.075752541 0.0079750763 0.76600003
-0.074377887 0.0079646651 0.76500005
-0.072911009 0.0079438426 0.76300001
-0.071450815 0.00792302 0.76100004
-0.070089504 0.0079126088 0.76000005
-0.068731532 0.0079021975 0.75900006
-0.067376889 0.0078917863 0.75800002
-0.065938361 0.0078709638 0.75600004
-0.064592063 0.0078605525 0.75500005
-0.063249096 0.0078501403 0.75400001
-0.06182725 0.0078293178 0.75200003
-0.060492624 0.0078189066 0.75100005
-0.059161332 0.0078084958 0.75000006
-0.057833374 0.0077980841 0.74900001
-0.056508753 0.0077876728 0.74800003
-0.055187467 0.0077772615 0.74700004
-0.05394173 0.0077772615 0.74700004
-0.052625448 0.0077668503 0.74600005
-0.051312495 0.007756439 0.74500006
-0.050070092 0.007756439 0.74500006
-0.048762143 0.0077460273 0.74400002
-0.047521409 0.0077460273 0.74400002
-0.046218466 0.0077356161 0.74300003
-0.044918861 0.0077252048 0.74200004
-0.043681461 0.0077252048 0.74200004
-0.04238686 0.0077147936 0.74100006
-0.041151125 0.0077147936 0.74100006
-0.03991539 0.0077147936 0.74100006
-0.038627457 0.0077043818 0.74000001
-0.037393391 0.0077043818 0.74000001
-0.036159325 0.0077043818 0.74000001
-0.034925256 0.0077043818 0.74000001
-0.033645663 0.0076939706 0.73900002
-0.032413267 0.0076939706 0.73900002
-0.031180866 0.0076939706 0.73900002
-0.029948469 0.0076939706 0.73900002
-0.02867721 0.0076835593 0.73800004
-0.02744648 0.0076835593 0.73800004
-0.026215751 0.0076835593 0.73800004
-0.024985021 0.0076835593 0.73800004
-0.023754289 0.0076835593 0.73800004
-0.022523558 0.0076835593 0.73800004
-0.02132168 0.0076939706 0.73900002
-0.020089282 0.0076939706 0.73900002
-0.018856883 0.0076939706 0.73900002
-0.017624486 0.0076939706 0.73900002
-0.016392086 0.0076939706 0.73900002
-0.015180202 0.0077043818 0.74000001
-0.013946135 0.0077043818 0.74000001
-0.01271207 0.0077043818 0.74000001
-0.011493515 0.0077147936 0.74100006
-0.010257781 0.0077147936 0.74100006
-0.0090220477 0.0077147936 0.74100006
-0.0077968217 0.0077252048 0.74200004
-0.00656826 0.0077356161 0.74300003
-0.0053291912 0.0077356161 0.74300003
-0.0040956275 0.0077460273 0.74400002
-0.0028548909 0.0077460273 0.74400002
-0.0016163238 0.007756439 0.74500006
-0.00037391941 0.007756439 0.74500006
0.00086965068 0.0077668503 0.74600005
0.0021137225 0.0077668503 0.74600005
0.0033622955 0.0077772615 0.74700004
0.0046080356 0.0077772615 0.74700004
0.0058616111 0.0077876728 0.74800003
0.0071185227 0.0077980841 0.74900001
0.0083787693 0.0078084958 0.75000006
0.0096423514 0.0078189066 0.75100005
0.010909269 0.0078293178 0.75200003
0.01217952 0.0078397291 0.75300002
0.013453108 0.0078501403 0.75400001
0.014730033 0.0078605525 0.75500005
0.016010292 0.0078709638 0.75600004
0.017316729 0.0078917863 0.75800002
0.018605327 0.0079021975 0.75900006
0.01989726 0.0079126088 0.76000005
0.021192526 0.00792302 0.76100004
0.022520643 0.0079438426 0.76300001
0.023855435 0.0079646651 0.76500005
0.025164044 0.0079750763 0.76600003
0.026475986 0.0079854876 0.76700002
0.027827453 0.008006311 0.76900005
0.029147735 0.0080167223 0.77000004
0.030510873 0.0080375448 0.77200001
0.031880684 0.0080583673 0.77400005
0.033214308 0.0080687786 0.77500004
0.034551267 0.0080791898 0.77600002
0.035845365 0.0080791898 0.77600002
0.037235189 0.0081000132 0.77800006
-0.091328308 0.0094095292 0.77900004
-0.090029202 0.0094095292 0.77900004
-0.0886162 0.0093974499 0.77800006
-0.087318763 0.0093974499 0.77800006
-0.085800186 0.0093732914 0.77600002
-0.084506087 0.0093732914 0.77600002
-0.083104752 0.0093612131 0.77500004
-0.081706755 0.0093491338 0.77400005
-0.08020819 0.0093249753 0.77200001
-0.07881853 0.009312897 0.77100003
-0.077331647 0.0092887394 0.76900005
-0.075851433 0.0092645809 0.76700002
-0.074475117 0.0092525017 0.76600003
-0.073006578 0.0092283441 0.76400006
-0.071544699 0.0092041856 0.76200002
-0.070181727 0.0091921072 0.76100004
-0.068822086 0.009180028 0.76000005
-0.067376889 0.0091558695 0.75800002
-0.066025577 0.0091437912 0.75700003
-0.064592063 0.0091196336 0.75500005
-0.063249096 0.0091075534 0.75400001
-0.061909463 0.0090954751 0.75300002
-0.060573172 0.0090833958 0.75200003
-0.059240215 0.0090713175 0.75100005
-0.057910591 0.0090592382 0.75000006
-0.056508753 0.0090350797 0.74800003
-0.055261347 0.0090350797 0.74800003
-0.05394173 0.0090230014 0.74700004
-0.05269599 0.0090230014 0.74700004
-0.051381372 0.0090109222 0.74600005
-0.050070092 0.0089988438 0.74500006
-0.048827689 0.0089988438 0.74500006
-0.047521409 0.0089867637 0.74400002
-0.046280671 0.0089867637 0.74400002
-0.044979401 0.0089746853 0.74300003
-0.043740332 0.0089746853 0.74300003
-0.042444061 0.0089626061 0.74200004
-0.041206658 0.0089626061 0.74200004
-0.039969258 0.0089626061 0.74200004
-0.038679656 0.0089505278 0.74100006
-0.037443925 0.0089505278 0.74100006
-0.036159325 0.0089384485 0.74000001
-0.034925256 0.0089384485 0.74000001
-0.03369119 0.0089384485 0.74000001
-0.032457124 0.0089384485 0.74000001
-0.031180866 0.0089263692 0.73900002
-0.029948469 0.0089263692 0.73900002
-0.028716069 0.0089263692 0.73900002
-0.02748367 0.0089263692 0.73900002
-0.026251273 0.0089263692 0.73900002
-0.025018875 0.0089263692 0.73900002
-0.023786478 0.0089263692 0.73900002
-0.022554077 0.0089263692 0.73900002
-0.02132168 0.0089263692 0.73900002
-0.020089282 0.0089263692 0.73900002
-0.018856883 0.0089263692 0.73900002
-0.017648334 0.0089384485 0.74000001
-0.016414268 0.0089384485 0.74000001
-0.015180202 0.0089384485 0.74000001
-0.013946135 0.0089384485 0.74000001
-0.012729249 0.0089505278 0.74100006
-0.011493515 0.0089505278 0.74100006
-0.010257781 0.0089505278 0.74100006
-0.0090342229 0.0089626061 0.74200004
-0.0078073293 0.0089746853 0.74300003
-0.00656826 0.0089746853 0.74300003
-0.0053363638 0.0089867637 0.74400002
-0.0040956275 0.0089867637 0.74400002
-0.0028587282 0.0089988438 0.74500006
-0.0016184933 0.0090109222 0.74600005
-0.00037442133 0.0090109222 0.74600005
0.00087081641 0.0090230014 0.74700004
0.002116556 0.0090230014 0.74700004
0.0033667965 0.0090350797 0.74800003
0.0046203728 0.009047159 0.74900001
0.0058772843 0.0090592382 0.75000006
0.0071280268 0.0090592382 0.75000006
0.0083899414 0.0090713175 0.75100005
0.0096551906 0.0090833958 0.75200003
0.010923775 0.0090954751 0.75300002
0.012195694 0.0091075534 0.75400001
0.013470951 0.0091196336 0.75500005
0.014749542 0.0091317119 0.75600004
0.016052647 0.0091558695 0.75800002
0.017339576 0.0091679497 0.75900006
0.01862984 0.009180028 0.76000005
0.019923439 0.0091921072 0.76100004
0.021248221 0.0092162648 0.76300001
0.022579676 0.0092404233 0.76500005
0.023886617 0.0092525017 0.76600003
0.025196895 0.0092645809 0.76700002
0.026545025 0.0092887394 0.76900005
0.027863638 0.0093008177 0.77000004
0.029223442 0.0093249753 0.77200001
0.030589918 0.0093491338 0.77400005
0.031921875 0.0093612131 0.77500004
0.03330002 0.0093853706 0.77700001
0.034640316 0.0093974499 0.77800006
0.035983946 0.0094095292 0.77900004
0.037330911 0.0094216075 0.78000003
0.038631681 0.0094216075 0.78000003
-0.090144776 0.01072238 0.78000003
-0.088844001 0.01072238 0.78000003
-0.087430999 0.010708634 0.77900004
-0.086021326 0.010694887 0.77800006
-0.08472389 0.010694887 0.77800006
-0.083211988 0.010667394 0.77600002
-0.081812315 0.010653647 0.77500004
-0.080415986 0.0106399 0.77400005
-0.078920759 0.010612407 0.77200001
-0.077532768 0.01059866 0.77100003
-0.076049224 0.010571168 0.76900005
-0.07457234 0.010543673 0.76700002
-0.073102131 0.010516181 0.76500005
-0.071732484 0.010502434 0.76400006
-0.070273951 0.010474941 0.76200002
-0.06891264 0.010461194 0.76100004
-0.067465782 0.010433701 0.75900006
-0.066112801 0.010419954 0.75800002
-0.064677611 0.010392461 0.75600004
-0.063332982 0.010378715 0.75500005
-0.061909463 0.010351221 0.75300002
-0.060573172 0.010337474 0.75200003
-0.059240215 0.010323728 0.75100005
-0.057910591 0.010309981 0.75000006
-0.056584299 0.010296234 0.74900001
-0.055261347 0.010282488 0.74800003
-0.054013938 0.010282488 0.74800003
-0.05269599 0.010268741 0.74700004
-0.051450245 0.010268741 0.74700004
-0.0501373 0.010254995 0.74600005
-0.048893228 0.010254995 0.74600005
-0.047585282 0.010241248 0.74500006
-0.04634288 0.010241248 0.74500006
-0.045039937 0.0102275 0.74400002
-0.043799199 0.0102275 0.74400002
-0.042558465 0.0102275 0.74400002
-0.041262191 0.010213754 0.74300003
-0.040023122 0.010213754 0.74300003
-0.038731854 0.010200008 0.74200004
-0.037494455 0.010200008 0.74200004
-0.03620819 0.010186261 0.74100006
-0.034972455 0.010186261 0.74100006
-0.03369119 0.010172514 0.74000001
-0.032457124 0.010172514 0.74000001
-0.031223061 0.010172514 0.74000001
-0.029988995 0.010172514 0.74000001
-0.028754925 0.010172514 0.74000001
-0.02748367 0.010158768 0.73900002
-0.026251273 0.010158768 0.73900002
-0.025018875 0.010158768 0.73900002
-0.023786478 0.010158768 0.73900002
-0.022584597 0.010172514 0.74000001
-0.021350533 0.010172514 0.74000001
-0.020116465 0.010172514 0.74000001
-0.018882399 0.010172514 0.74000001
-0.017648334 0.010172514 0.74000001
-0.01643645 0.010186261 0.74100006
-0.015200716 0.010186261 0.74100006
-0.013964982 0.010186261 0.74100006
-0.012729249 0.010186261 0.74100006
-0.011509025 0.010200008 0.74200004
-0.010271625 0.010200008 0.74200004
-0.0090463981 0.010213754 0.74300003
-0.0078073293 0.010213754 0.74300003
-0.0065771001 0.0102275 0.74400002
-0.0053435368 0.010241248 0.74500006
-0.0041011325 0.010241248 0.74500006
-0.0028625655 0.010254995 0.74600005
-0.001620663 0.010268741 0.74700004
-0.00037492323 0.010268741 0.74700004
0.00087198213 0.010282488 0.74800003
0.0021222227 0.010296234 0.74900001
0.0033757989 0.010309981 0.75000006
0.0046265419 0.010309981 0.75000006
0.0058851205 0.010323728 0.75100005
0.0071470346 0.010337474 0.75200003
0.0084122848 0.010351221 0.75300002
0.0096680289 0.010351221 0.75300002
0.010938282 0.010364967 0.75400001
0.01221187 0.010378715 0.75500005
0.013488794 0.010392461 0.75600004
0.014788562 0.010419954 0.75800002
0.016073825 0.010433701 0.75900006
0.017362421 0.010447447 0.76000005
0.018654352 0.010461194 0.76100004
0.0199758 0.010488687 0.76300001
0.021303918 0.010516181 0.76500005
0.022609191 0.010529927 0.76600003
0.0239178 0.010543673 0.76700002
0.025262598 0.010571168 0.76900005
0.026579544 0.010584914 0.77000004
0.027936012 0.010612407 0.77200001
0.029299151 0.0106399 0.77400005
0.030629439 0.010653647 0.77500004
0.032004252 0.01068114 0.77700001
0.033385739 0.010708634 0.77900004
0.034729365 0.01072238 0.78000003
0.03607633 0.010736126 0.78100002
0.037426632 0.010749874 0.78200006
0.038780265 0.01076362 0.78300005
0.040137239 0.010777366 0.78400004
-0.090491489 0.012069396 0.78300005
-0.08907181 0.012053981 0.78200006
-0.087655462 0.012038567 0.78100002
-0.08624246 0.012023153 0.78000003
-0.084832788 0.012007738 0.77900004
-0.083426453 0.011992324 0.77800006
-0.081917882 0.011961496 0.77600002
-0.080519885 0.011946081 0.77500004
-0.079125218 0.011930667 0.77400005
-0.077633329 0.011899838 0.77200001
-0.076148115 0.01186901 0.77000004
-0.074766792 0.011853595 0.76900005
-0.073293246 0.011822767 0.76700002
-0.071826376 0.011791938 0.76500005
-0.070366167 0.011761109 0.76300001
-0.069003195 0.011745695 0.76200002
-0.067554668 0.011714867 0.76000005
-0.066200025 0.011699453 0.75900006
-0.064763166 0.011668623 0.75700003
-0.063332982 0.011637796 0.75500005
-0.06199168 0.01162238 0.75400001
-0.06065372 0.011606966 0.75300002
-0.059319094 0.011591553 0.75200003
-0.057987802 0.011576138 0.75100005
-0.056659847 0.011560724 0.75000006
-0.055335224 0.011545309 0.74900001
-0.054013938 0.011529895 0.74800003
-0.052766532 0.011529895 0.74800003
-0.051450245 0.011514481 0.74700004
-0.050204508 0.011514481 0.74700004
-0.048893228 0.011499067 0.74600005
-0.047649156 0.011499067 0.74600005
-0.046405084 0.011499067 0.74600005
-0.045100477 0.011483653 0.74500006
-0.043858074 0.011483653 0.74500006
-0.042615667 0.011483653 0.74500006
-0.041317724 0.011468237 0.74400002
-0.04007699 0.011468237 0.74400002
-0.038784053 0.011452824 0.74300003
-0.037494455 0.01143741 0.74200004
-0.036257055 0.01143741 0.74200004
-0.035019651 0.01143741 0.74200004
-0.033736721 0.011421995 0.74100006
-0.03250099 0.011421995 0.74100006
-0.031265255 0.011421995 0.74100006
-0.029988995 0.01140658 0.74000001
-0.028754925 0.01140658 0.74000001
-0.027520861 0.01140658 0.74000001
-0.026286796 0.01140658 0.74000001
-0.02505273 0.01140658 0.74000001
-0.023818664 0.01140658 0.74000001
-0.022584597 0.01140658 0.74000001
-0.021379385 0.011421995 0.74100006
-0.02014365 0.011421995 0.74100006
-0.018907918 0.011421995 0.74100006
-0.017672185 0.011421995 0.74100006
-0.01643645 0.011421995 0.74100006
-0.01522123 0.01143741 0.74200004
-0.013983828 0.01143741 0.74200004
-0.012746427 0.01143741 0.74200004
-0.011509025 0.01143741 0.74200004
-0.010285468 0.011452824 0.74300003
-0.0090463981 0.011452824 0.74300003
-0.0078178374 0.011468237 0.74400002
-0.0065859407 0.011483653 0.74500006
-0.0053435368 0.011483653 0.74500006
-0.0041066376 0.011499067 0.74600005
-0.0028664025 0.011514481 0.74700004
-0.0016228325 0.011529895 0.74800003
-0.00037542512 0.011529895 0.74800003
0.0008743137 0.011560724 0.75000006
0.0021250562 0.011560724 0.75000006
0.0033802998 0.011576138 0.75100005
0.0046327105 0.011576138 0.75100005
0.0058929566 0.011591553 0.75200003
0.0071565388 0.011606966 0.75300002
0.008423456 0.01162238 0.75400001
0.0096808681 0.01162238 0.75400001
0.010952789 0.011637796 0.75500005
0.012228045 0.01165321 0.75600004
0.013524478 0.011684038 0.75800002
0.014808072 0.011699453 0.75900006
0.016095001 0.011714867 0.76000005
0.017385265 0.011730281 0.76100004
0.018678864 0.011745695 0.76200002
0.020001981 0.011776525 0.76400006
0.021331767 0.011807352 0.76600003
0.022638706 0.011822767 0.76700002
0.023980169 0.011853595 0.76900005
0.025295449 0.01186901 0.77000004
0.026648581 0.011899838 0.77200001
0.028008385 0.011930667 0.77400005
0.029337006 0.011946081 0.77500004
0.030708481 0.01197691 0.77700001
0.032086633 0.012007738 0.77900004
0.033428594 0.012023153 0.78000003
0.034818418 0.012053981 0.78200006
0.036168717 0.012069396 0.78300005
0.03752235 0.01208481 0.78400004
0.03887932 0.012100224 0.78500003
0.040239628 0.012115638 0.78600001
-0.093459748 0.013426416 0.78600001
-0.092031732 0.013409334 0.78500003
-0.090607055 0.013392252 0.78400004
-0.089299612 0.013392252 0.78400004
-0.087879933 0.013375171 0.78300005
-0.086463593 0.013358089 0.78200006
-0.085050583 0.013341006 0.78100002
-0.083640918 0.013323925 0.78000003
-0.082129009 0.013289761 0.77800006
-0.080623776 0.013255596 0.77600002
-0.079227448 0.013238515 0.77500004
-0.077834457 0.013221432 0.77400005
-0.076345898 0.013187269 0.77200001
-0.074864022 0.013153105 0.77000004
-0.073388807 0.01311894 0.76800001
-0.071920268 0.013084777 0.76600003
-0.070458397 0.013050614 0.76400006
-0.069003195 0.013016449 0.76200002
-0.067643553 0.012999367 0.76100004
-0.066200025 0.012965204 0.75900006
-0.064848714 0.012948121 0.75800002
-0.063416868 0.012913957 0.75600004
-0.062073901 0.012896876 0.75500005
-0.060734268 0.012879794 0.75400001
-0.059397973 0.012862711 0.75300002
-0.058065016 0.01284563 0.75200003
-0.056735393 0.012828548 0.75100005
-0.055409107 0.012811466 0.75000006
-0.054086149 0.012794384 0.74900001
-0.052766532 0.012777301 0.74800003
-0.051519122 0.012777301 0.74800003
-0.050271712 0.012777301 0.74800003
-0.048958767 0.01276022 0.74700004
-0.047713026 0.01276022 0.74700004
-0.046405084 0.012743139 0.74600005
-0.045161013 0.012743139 0.74600005
-0.043916941 0.012743139 0.74600005
-0.042615667 0.012726056 0.74500006
-0.04137326 0.012726056 0.74500006
-0.04007699 0.012708974 0.74400002
-0.038836252 0.012708974 0.74400002
-0.037544984 0.012691892 0.74300003
-0.036305916 0.012691892 0.74300003
-0.035019651 0.01267481 0.74200004
-0.033782251 0.01267481 0.74200004
-0.032544848 0.01267481 0.74200004
-0.031265255 0.012657729 0.74100006
-0.030029522 0.012657729 0.74100006
-0.028793786 0.012657729 0.74100006
-0.027558053 0.012657729 0.74100006
-0.02632232 0.012657729 0.74100006
-0.025086585 0.012657729 0.74100006
-0.023850853 0.012657729 0.74100006
-0.022615118 0.012657729 0.74100006
-0.021379385 0.012657729 0.74100006
-0.020170834 0.01267481 0.74200004
-0.018933434 0.01267481 0.74200004
-0.017696032 0.01267481 0.74200004
-0.016458631 0.01267481 0.74200004
-0.01522123 0.01267481 0.74200004
-0.014002673 0.012691892 0.74300003
-0.012763605 0.012691892 0.74300003
