# .PCD v0.7 - Point Cloud Data file format
VERSION 0.7
FIELDS x y z
SIZE 4 4 4
TYPE F F F
COUNT 1 1 1
WIDTH 1436
HEIGHT 1
VIEWPOINT 0 0 0 1 0 0 0
POINTS 1436
DATA ascii
-0.0120338 -0.200303 0.65868002
-0.0062881401 -0.200335 0.65986103
-0.000333353 -0.200647 0.662027
0.0054861801 -0.200671 0.66319799
0.0117241 -0.201258 0.66633898
0.0176256 -0.20127299 0.66749698
-0.076350398 -0.203813 0.662094
-0.070990399 -0.20327801 0.6613
-0.065630399 -0.20274299 0.660505
-0.060095299 -0.202792 0.661717
-0.054431502 -0.203128 0.66392702
-0.049030401 -0.20259 0.66312701
-0.043741599 -0.20176101 0.66132599
-0.038348701 -0.201223 0.66052699
-0.033213101 -0.20011 0.65773302
-0.027973499 -0.199287 0.65593898
-0.0226053 -0.198751 0.65514398
-0.0167774 -0.199071 0.65732902
-0.0112231 -0.198817 0.65752202
-0.0054828101 -0.198846 0.65870398
0.00046830799 -0.199154 0.66087103
0.0064685699 -0.199457 0.66303098
0.0127124 -0.200036 0.66617203
0.0190219 -0.200609 0.66930199
-0.073243096 -0.202409 0.66161299
-0.067883097 -0.201874 0.66081899
-0.062439099 -0.201629 0.66102803
-0.0567015 -0.202252 0.66424298
-0.051099401 -0.202291 0.66544598
-0.045899399 -0.201175 0.662642
-0.040615302 -0.200348 0.660842
-0.035472699 -0.199238 0.65804702
-0.030229701 -0.198415 0.65625298
-0.025002999 -0.197595 0.65446198
-0.019343499 -0.197629 0.65565598
-0.0136512 -0.197658 0.65684497
-0.0079258904 -0.197684 0.65802902
-0.00216781 -0.197708 0.65920901
0.00380569 -0.198008 0.66137201
0.0100193 -0.19858401 0.66451699
0.0162986 -0.19915301 0.66765201
0.023472499 -0.200829 0.67471999
-0.069063798 -0.20089699 0.66097301
-0.063539296 -0.20094 0.66218698
-0.057800699 -0.201556 0.665402
-0.052193999 -0.201592 0.66660398
-0.046875302 -0.200764 0.66479897
-0.0418033 -0.199366 0.66099799
-0.036657199 -0.198258 0.65820199
-0.031543799 -0.197154 0.65541101
-0.026183801 -0.196619 0.65461701
-0.020675899 -0.196366 0.65481699
-0.0149953 -0.196394 0.65600801
-0.0092818104 -0.196419 0.65719301
-0.0037082401 -0.19615901 0.65738398
0.00224351 -0.196458 0.65955001
0.0086224005 -0.19730601 0.66368699
0.0150834 -0.198148 0.66781098
0.022243001 -0.199812 0.67488098
-0.068025 -0.199995 0.66181499
-0.062489301 -0.20003299 0.66302699
-0.0566446 -0.200928 0.667243
-0.051018499 -0.200958 0.668441
-0.045901801 -0.19956 0.66463399
-0.040834099 -0.19816799 0.66083401
-0.0356909 -0.197064 0.65803802
-0.0305805 -0.195963 0.65524799
-0.025361801 -0.19514699 0.653458
-0.0197112 -0.19517399 0.65465301
-0.0140276 -0.195198 0.65584397
-0.0084771104 -0.19494 0.65603697
-0.00273614 -0.194958 0.65721899
0.0032200399 -0.195251 0.65938503
0.00960634 -0.196091 0.66351998
0.0162735 -0.197199 0.66863
0.024073601 -0.199672 0.678653
-0.062431298 -0.199516 0.66503102
-0.0565711 -0.20039999 0.66924399
-0.051029 -0.200142 0.669438
-0.0459034 -0.19874801 0.66562998
-0.0409436 -0.19707701 0.66082901
-0.035799999 -0.195977 0.65803403
-0.030689299 -0.19487999 0.65524399
-0.025470501 -0.19406401 0.65345401
-0.0198201 -0.194089 0.65464902
-0.0141369 -0.19410899 0.65583903
-0.0085865604 -0.193849 0.65603298
-0.0028458899 -0.193864 0.65721399
0.0031097899 -0.194152 0.65938097
0.00949529 -0.194984 0.66351599
0.016359899 -0.196357 0.66961199
0.0243732 -0.199083 0.68062001
-0.063293703 -0.19966801 0.66920298
-0.057589799 -0.199975 0.67140597
-0.0520331 -0.19971301 0.67159897
-0.0468858 -0.198323 0.66778702
-0.041902199 -0.196657 0.662983
-0.036984399 -0.194997 0.658189
-0.03187 -0.193903 0.65539801
-0.02651 -0.193368 0.65460402
-0.021002701 -0.19311 0.65480399
-0.0154787 -0.19285101 0.65500098
-0.0099384002 -0.192591 0.65519601
-0.0042095198 -0.19260401 0.65638
0.00173244 -0.19288801 0.658548
0.0081007201 -0.19371399 0.66268498
0.0149445 -0.195076 0.66878498
0.023132799 -0.198057 0.68078297
0.0308952 -0.200205 0.68979502
-0.058439501 -0.20010699 0.67557698
-0.053140901 -0.198998 0.672759
-0.047979899 -0.197612 0.66894501
-0.042980999 -0.19595 0.66413897
-0.038047701 -0.194296 0.659343
-0.032921501 -0.193204 0.65654999
-0.0276908 -0.19239201 0.65475899
-0.022185201 -0.19213299 0.65495902
-0.016663 -0.191872 0.65515602
-0.0111246 -0.19160999 0.655352
-0.0053993799 -0.19162001 0.65653503
0.00053724402 -0.1919 0.65870398
0.0068964302 -0.192717 0.66284299
0.0135327 -0.193799 0.66795701
0.0214862 -0.196491 0.67897302
0.029425399 -0.19889501 0.68897498
-0.0593899 -0.199948 0.67874497
-0.054157801 -0.19856 0.67492098
-0.048974998 -0.197175 0.67110401
-0.043952301 -0.195519 0.66629499
-0.039114699 -0.193592 0.660496
-0.0339767 -0.19250201 0.65770203
-0.0287359 -0.19169 0.655909
-0.023367699 -0.191154 0.65511298
-0.0178474 -0.19089299 0.65531099
-0.0123107 -0.19062901 0.65550703
-0.0067576799 -0.190363 0.65570003
-0.00065803702 -0.19091 0.65886098
0.0055072801 -0.191451 0.66201198
0.0123176 -0.192793 0.66811597
0.0198467 -0.19493 0.67716199
0.0281686 -0.197855 0.68913901
-0.0610447 -0.20128401 0.68709898
-0.056192301 -0.198502 0.67825001
-0.051073801 -0.196843 0.67342699
-0.046021 -0.19519 0.66861302
-0.041033801 -0.193544 0.663809
-0.036112301 -0.19190399 0.659015
-0.030859901 -0.191093 0.65722001
-0.025483601 -0.190556 0.65642297
-0.0201071 -0.19001999 0.655626
-0.0145739 -0.18975499 0.65582198
-0.00902416 -0.18948901 0.65601498
-0.00311162 -0.18976 0.65818799
0.0030316501 -0.19029599 0.66134202
0.0094302204 -0.191094 0.665474
0.016702499 -0.19295301 0.67354202
0.024946701 -0.19586299 0.68553001
-0.061868399 -0.201654 0.69228101
-0.0570499 -0.198604 0.68242103
-0.052086599 -0.19639499 0.67558801
-0.047010101 -0.194747 0.670771
-0.041999299 -0.193106 0.66596401
-0.0371763 -0.19119599 0.66016799
-0.032044299 -0.19011401 0.65737498
-0.0266679 -0.189577 0.656578
-0.0212915 -0.189041 0.65578097
-0.0157601 -0.188774 0.65597701
-0.0102122 -0.18850601 0.65617102
-0.00430506 -0.18877301 0.65834397
0.00183104 -0.189303 0.66149902
0.0080327103 -0.189826 0.664644
0.0148883 -0.19114099 0.67074102
0.023288701 -0.194299 0.68372202
-0.062948398 -0.20118099 0.69445097
-0.058009598 -0.19841801 0.68559003
-0.052198201 -0.19528399 0.67558402
-0.047015399 -0.19391599 0.671767
-0.042109501 -0.19200701 0.665959
-0.037163701 -0.190378 0.66116202
-0.032023199 -0.18929701 0.65836698
-0.0266385 -0.18876 0.65756899
-0.021107201 -0.188493 0.65776497
-0.0157144 -0.18795501 0.65696597
-0.0101585 -0.187684 0.65715897
-0.00441491 -0.18767799 0.65833902
0.0017204901 -0.18820199 0.66149402
0.0081092101 -0.18898299 0.66562802
0.0149718 -0.190285 0.67172402
0.022969799 -0.192893 0.68273199
-0.065242499 -0.200542 0.695786
-0.060015701 -0.19860899 0.68993098
-0.055240199 -0.195593 0.68007803
-0.050210401 -0.193681 0.67425197
-0.045153901 -0.192048 0.669438
-0.0401632 -0.190421 0.66463399
-0.035112899 -0.189071 0.66083699
-0.0298452 -0.188263 0.65903997
-0.024452301 -0.18772499 0.65824097
-0.0190596 -0.187187 0.65744102
-0.0135087 -0.18691599 0.65763497
-0.0077753402 -0.18690699 0.65881699
-0.00200905 -0.18689699 0.65999401
0.0043378202 -0.187674 0.66413403
0.010576 -0.18818 0.667274
0.017874699 -0.189991 0.67533702
0.0257359 -0.192311 0.68534797
-0.0643823 -0.198741 0.69360501
-0.059179299 -0.19682001 0.68775302
-0.054433499 -0.19382299 0.67790502
-0.049223602 -0.192461 0.67408502
-0.044172999 -0.190835 0.66927201
-0.039188098 -0.189216 0.664469
-0.0340157 -0.18813901 0.66167003
-0.0287413 -0.187332 0.659872
-0.023340199 -0.186793 0.65907103
-0.017939201 -0.18625399 0.65827101
-0.0123787 -0.18598001 0.658463
-0.00663405 -0.185968 0.65964299
-0.000680823 -0.186215 0.66180903
0.0055057202 -0.18672 0.66495597
0.011758 -0.187218 0.66809303
0.019278901 -0.189273 0.67713898
-0.070472501 -0.196806 0.68940598
-0.064650998 -0.197061 0.69159102
-0.059378199 -0.195419 0.686746
-0.054451901 -0.192976 0.67890298
-0.049334999 -0.191351 0.67408001
-0.0442838 -0.189732 0.66926801
-0.039179899 -0.18838599 0.66546297
-0.034125499 -0.18704499 0.66166502
-0.028716199 -0.186505 0.660864
-0.023306901 -0.185966 0.66006202
-0.017746599 -0.18569 0.660254
-0.0123291 -0.18515 0.65945101
-0.0065766601 -0.185133 0.66062999
-0.00079137099 -0.185114 0.66180402
0.0053944699 -0.18561099 0.66495198
0.0116461 -0.186103 0.66808897
0.0187645 -0.18762299 0.67516202
-0.0718382 -0.19524699 0.68755502
-0.066038601 -0.195499 0.689744
-0.060607798 -0.19440199 0.68690699
-0.055576898 -0.192238 0.68006498
-0.050444599 -0.19061799 0.67523998
-0.045269702 -0.18927 0.67142498
-0.040260501 -0.18766201 0.66661799
-0.0351924 -0.186324 0.66281903
-0.029774901 -0.185784 0.66201597
-0.0243575 -0.185243 0.66121298
-0.01894 -0.18470301 0.66040999
-0.013365 -0.184424 0.66059899
-0.0077736801 -0.18414301 0.66078699
-0.0019920799 -0.18412 0.66196197
0.00400458 -0.18435401 0.66412097
0.0102407 -0.18483999 0.66725999
0.0169395 -0.18583401 0.67236298
-0.077818699 -0.19332799 0.68334103
-0.072085299 -0.193582 0.68553901
-0.066302702 -0.193831 0.687729
-0.060804501 -0.19300701 0.68589801
-0.055780798 -0.190854 0.67905802
-0.050556298 -0.189505 0.67523599
-0.045380801 -0.188163 0.67141998
-0.040371001 -0.186562 0.666614
-0.035177801 -0.18549301 0.66381198
-0.0298847 -0.184689 0.66201198
-0.024467301 -0.184149 0.66120899
-0.0189008 -0.183869 0.66139901
-0.0133178 -0.183587 0.66158801
-0.0077184201 -0.183304 0.66177398
-0.00192891 -0.183277 0.662947
0.00407536 -0.183504 0.66510499
0.010129 -0.183727 0.667256
0.016628399 -0.18445501 0.671372
-0.0813042 -0.19227199 0.68282002
-0.075718001 -0.191989 0.68300802
-0.069975197 -0.192237 0.68520498
-0.064339899 -0.19194899 0.68538499
-0.059034299 -0.190597 0.68155098
-0.053872701 -0.188988 0.67672199
-0.048570901 -0.187911 0.673904
-0.043413199 -0.186575 0.67009199
-0.038304601 -0.18524399 0.666287
-0.0331176 -0.18417899 0.663486
-0.027691999 -0.18363699 0.662682
-0.022122299 -0.183356 0.66287202
-0.016688401 -0.182814 0.662067
-0.0110941 -0.182529 0.66225302
-0.0054833498 -0.182244 0.66243798
0.00049743301 -0.182468 0.664599
0.0063424599 -0.182432 0.66576397
0.0124136 -0.182648 0.66791201
-0.0836761 -0.191108 0.68213499
-0.078101702 -0.190825 0.68232399
-0.072510801 -0.190539 0.68251199
-0.066828698 -0.190516 0.68370098
-0.061363 -0.18969899 0.68187499
-0.0560963 -0.188357 0.678047
-0.050779302 -0.18728299 0.67522699
-0.045602899 -0.18595 0.67141199
-0.040475901 -0.184622 0.66760403
-0.035273802 -0.183559 0.664801
-0.0299723 -0.182758 0.66299897
-0.024405999 -0.182474 0.66319001
-0.0188234 -0.18219 0.663378
-0.0133813 -0.181647 0.66257203
-0.00777411 -0.18135899 0.66275603
-0.0019769999 -0.181325 0.66392899
0.0040344801 -0.181541 0.666085
0.0099054798 -0.1815 0.667247
0.0162053 -0.18196 0.67037702
-0.0804784 -0.18966401 0.68164003
-0.074962497 -0.189114 0.68082201
-0.069375098 -0.18882599 0.68101001
-0.063850902 -0.18827499 0.68019098
-0.0584145 -0.187462 0.67836899
-0.0530908 -0.186391 0.67554802
-0.0477998 -0.185321 0.672732
-0.042541601 -0.184256 0.66992098
-0.037316199 -0.183194 0.66711497
-0.0321238 -0.182135 0.66431302
-0.0266898 -0.181593 0.663508
-0.0211107 -0.181307 0.663697
-0.015515 -0.18101899 0.66388297
-0.0100648 -0.180475 0.66307497
-0.00427463 -0.180438 0.664249
0.0017265 -0.18065 0.66640699
0.0075906198 -0.18060701 0.66756898
0.013682 -0.18081 0.66971397
-0.086152896 -0.188835 0.68144399
-0.080645204 -0.18828601 0.680628
-0.075074397 -0.187998 0.68081802
-0.069558501 -0.18744799 0.68000001
-0.064042397 -0.18689699 0.67918199
-0.058614202 -0.186088 0.67736202
-0.053202402 -0.185278 0.67554402
-0.047806799 -0.18447199 0.67372799
-0.042540099 -0.18340801 0.67091602
-0.0374268 -0.182092 0.66711003
-0.032105301 -0.181292 0.66530597
-0.026663201 -0.180749 0.66449898
-0.021075999 -0.180461 0.66468698
-0.0156256 -0.17991699 0.66387898
-0.0100138 -0.179626 0.66406298
-0.0042157499 -0.17958499 0.66523498
0.00179308 -0.179791 0.66739202
0.0076650302 -0.17974301 0.66855299
0.0137642 -0.17994 0.67069602
-0.087411098 -0.18756901 0.68059403
-0.081911497 -0.18702 0.67977899
-0.076412 -0.186471 0.67896301
-0.070912398 -0.185923 0.67814797
-0.065335199 -0.185634 0.67833698
-0.059827499 -0.185084 0.67752099
-0.054413799 -0.184277 0.67570299
-0.049016599 -0.18347099 0.67388701
-0.043746199 -0.182411 0.67107397
-0.038508799 -0.181354 0.668266
-0.033177201 -0.180555 0.66645998
-0.0277269 -0.180011 0.66565198
-0.0222767 -0.17946699 0.66484398
-0.0166748 -0.179176 0.66502899
-0.0112163 -0.17863099 0.66421998
-0.00542178 -0.178587 0.66539299
0.00058162899 -0.178789 0.66755003
0.0064498801 -0.178738 0.66871202
0.0125437 -0.178931 0.670856
-0.0919604 -0.186634 0.68023098
-0.086422801 -0.18634801 0.680426
-0.080977798 -0.18553799 0.67860299
-0.075486504 -0.18499 0.67778897
-0.069924101 -0.18470199 0.67798102
-0.064345397 -0.18441001 0.67817003
-0.058837701 -0.183861 0.67735302
-0.053425498 -0.183055 0.67553502
-0.048029698 -0.18225101 0.67371899
-0.042762302 -0.18119501 0.67090702
-0.0375278 -0.180142 0.6681
-0.032197699 -0.179345 0.66629398
-0.0267474 -0.178801 0.66548598
-0.0212972 -0.178257 0.66467798
-0.015693801 -0.177963 0.66486299
-0.0100741 -0.17766801 0.66504598
-0.0042685098 -0.177619 0.66621703
0.00174763 -0.177816 0.66837198
0.00781292 -0.17800701 0.67052102
0.0137334 -0.177946 0.67167503
-0.093206398 -0.18537299 0.67937899
-0.0877233 -0.184826 0.67856699
-0.082240202 -0.18427899 0.67775398
-0.076756999 -0.183732 0.67694098
-0.071135603 -0.183699 0.67813897
-0.065558702 -0.18340699 0.67832798
-0.060051002 -0.18285701 0.67751199
-0.054543201 -0.182308 0.67669499
-0.049137399 -0.181504 0.674878
-0.043858301 -0.18045001 0.67206401
-0.0386119 -0.1794 0.66925502
-0.0332717 -0.17860299 0.66744798
-0.0278133 -0.178058 0.66663897
-0.0223547 -0.177513 0.66583002
-0.0168963 -0.17696901 0.66501999
-0.0112783 -0.176672 0.66520298
-0.0054763802 -0.17662001 0.66637498
0.00053433102 -0.17681199 0.668531
0.0065942002 -0.176999 0.67067999
0.0127034 -0.17718001 0.672822
-0.095543697 -0.18422601 0.678689
-0.090027802 -0.183937 0.67888701
-0.0845939 -0.18313301 0.67706603
-0.0791189 -0.182587 0.67625499
-0.073512703 -0.182551 0.67745501
-0.0678735 -0.182513 0.67865002
-0.0623658 -0.181964 0.67783397
-0.0568581 -0.18141399 0.67701799
-0.051350299 -0.180865 0.67620099
-0.045949198 -0.18006299 0.67438501
-0.040679701 -0.179013 0.67157203
-0.035442799 -0.177967 0.66876501
-0.030107399 -0.17717201 0.66695797
-0.024648899 -0.17662799 0.66614902
-0.0191905 -0.176083 0.66534001
-0.0135759 -0.17578501 0.66552299
-0.0077808802 -0.175731 0.66669601
-0.00195293 -0.17567401 0.66786301
0.0040883902 -0.17585699 0.67001498
0.0103678 -0.176278 0.67314702
0.0163188 -0.176209 0.67429602
-0.093464904 -0.1829 0.67835999
-0.087990001 -0.182354 0.677549
-0.082567401 -0.18155199 0.67572898
-0.077040099 -0.181261 0.67592603
-0.071358703 -0.181476 0.67812997
-0.0657821 -0.18118 0.67831898
-0.060189299 -0.18088201 0.67850602
-0.054673299 -0.18033201 0.677688
-0.049259 -0.17953099 0.67587
-0.043861002 -0.17873301 0.67405403
-0.038715601 -0.17743701 0.67024499
-0.033367001 -0.176643 0.66843599
-0.027900301 -0.176098 0.66762602
-0.0225762 -0.17530601 0.66582102
-0.0169669 -0.175007 0.66600502
-0.0113411 -0.174706 0.66618699
-0.00553159 -0.174647 0.66735703
0.00048634401 -0.17482799 0.66951197
0.0065534199 -0.17500401 0.67166001
0.0128616 -0.17541599 0.67478698
-0.097985096 -0.18197501 0.67799401
-0.092518397 -0.18143 0.67718297
-0.087097302 -0.18063 0.67536402
-0.081638902 -0.180085 0.674555
-0.076056197 -0.18004499 0.67575902
-0.070370503 -0.180254 0.67796302
-0.064713903 -0.180207 0.67915601
-0.059198 -0.179657 0.67833799
-0.053681999 -0.179106 0.67751998
-0.0482691 -0.178308 0.67570198
-0.042872801 -0.17750999 0.67388701
-0.0376123 -0.176468 0.671076
-0.032256901 -0.175675 0.66926599
-0.0269178 -0.17488401 0.66745901
-0.021451101 -0.174339 0.66664898
-0.015984399 -0.173794 0.665838
-0.0103571 -0.17349 0.66601998
-0.0043759402 -0.173669 0.66817999
0.0014775899 -0.173603 0.66934401
0.0077343401 -0.174014 0.67247897
0.0140567 -0.174417 0.675605
-0.0981251 -0.18061499 0.67697799
-0.092629299 -0.180324 0.67717898
-0.0872536 -0.17927299 0.67435098
-0.081803299 -0.17873 0.67354298
-0.0761673 -0.178939 0.67575401
-0.070411898 -0.17939299 0.67896402
-0.0648259 -0.179092 0.679151
-0.059223399 -0.17879 0.67933702
-0.053699199 -0.178239 0.678518
-0.048278101 -0.177441 0.67669803
-0.042984299 -0.17639901 0.67388201
-0.0377235 -0.17535999 0.67107099
-0.0323679 -0.174569 0.66926199
-0.0268929 -0.174023 0.66845
-0.021562001 -0.173234 0.66664398
-0.016095299 -0.17268801 0.66583401
-0.0103079 -0.17262401 0.66700703
-0.0044874898 -0.17255799 0.668176
0.00154248 -0.172727 0.67032897
0.0076216999 -0.17289101 0.67247498
0.0139434 -0.173289 0.67559999
-0.099327497 -0.179621 0.67713499
-0.093869001 -0.179076 0.67632598
-0.088454202 -0.17828099 0.67450798
-0.083003901 -0.177737 0.67369998
-0.0774334 -0.177692 0.67490602
-0.071693398 -0.178141 0.67811698
-0.066040903 -0.178087 0.67931002
-0.060355499 -0.178031 0.68049902
-0.054823201 -0.177479 0.67967898
-0.049392 -0.176681 0.677858
-0.0439771 -0.17588601 0.67603999
-0.0386962 -0.174849 0.673226
-0.033448201 -0.173813 0.67041701
-0.028099099 -0.173025 0.66860801
-0.0227664 -0.17223699 0.66680199
-0.0172996 -0.171692 0.66599202
-0.0116743 -0.171386 0.66617298
-0.0056989398 -0.171556 0.66833502
0.000150605 -0.171483 0.66949898
0.0063993898 -0.17188101 0.67263502
0.0127138 -0.172272 0.67576098
0.018894499 -0.17242201 0.67789203
-0.096195199 -0.17794099 0.67563498
-0.090744898 -0.177397 0.67482698
-0.085343003 -0.176604 0.673011
-0.079844303 -0.176309 0.67321098
-0.074134603 -0.176753 0.67642701
-0.068359204 -0.177192 0.67963302
-0.062680699 -0.17713299 0.68082201
-0.057058901 -0.176825 0.681005
-0.051518399 -0.176273 0.68018299
-0.046189599 -0.17523301 0.67736202
-0.040893499 -0.174199 0.674546
-0.035630401 -0.17316601 0.67173499
-0.030400099 -0.17213701 0.66892803
-0.0249252 -0.17159 0.66811699
-0.019450299 -0.17104401 0.66730499
-0.0139753 -0.170498 0.66649401
-0.0081737097 -0.170426 0.667665
-0.0023392399 -0.170352 0.66883099
0.0038874999 -0.170744 0.67197001
0.01018 -0.171132 0.67510003
0.016341999 -0.171278 0.67723298
-0.099575996 -0.177164 0.67611498
-0.094160803 -0.176373 0.67429698
-0.088762 -0.17558201 0.672481
-0.0832766 -0.17528699 0.672683
-0.077715002 -0.175235 0.67388999
-0.071916603 -0.175917 0.67810798
-0.0661887 -0.176101 0.68030602
-0.0604956 -0.176038 0.68149298
-0.0548626 -0.17572699 0.68167299
-0.049414501 -0.174932 0.67984998
-0.044091899 -0.173897 0.67703003
-0.0389194 -0.17262501 0.673217
-0.0335453 -0.171836 0.67140502
-0.028321199 -0.170812 0.66859901
-0.0228462 -0.170265 0.66778803
-0.017371301 -0.169719 0.66697598
-0.0117382 -0.16940799 0.66715699
-0.0059221401 -0.169332 0.66832602
0.00010141 -0.169487 0.670479
0.0063570999 -0.169871 0.67361403
0.0126785 -0.170248 0.67673898
0.0188662 -0.170387 0.67886901
-0.098596402 -0.175954 0.67594898
-0.093182698 -0.175164 0.67413098
-0.087785497 -0.174375 0.67231601
-0.082298599 -0.174078 0.67251801
-0.076672897 -0.17426699 0.67473
-0.070928298 -0.174696 0.67794102
-0.065195799 -0.17487501 0.68013799
-0.0594141 -0.17504799 0.68232697
-0.053771298 -0.17473599 0.68250602
-0.048418801 -0.173701 0.67968202
-0.043099198 -0.17267001 0.676862
-0.037930999 -0.171404 0.67304897
-0.032558501 -0.170616 0.67123801
-0.0273373 -0.169595 0.66843301
-0.021862401 -0.16904899 0.66762102
-0.016236 -0.16873799 0.66780299
-0.0105931 -0.16842499 0.66798198
-0.0047658398 -0.168345 0.66914898
0.0012703401 -0.168493 0.67130101
0.0077244602 -0.1691 0.675421
0.0138756 -0.169237 0.67755598
-0.104177 -0.17514899 0.67574
-0.098735303 -0.174606 0.67493302
-0.093329698 -0.17381901 0.67311698
-0.087895699 -0.17327701 0.67231101
-0.082409099 -0.172977 0.67251301
-0.076783702 -0.173163 0.67472601
-0.0710399 -0.173584 0.67793602
-0.065230399 -0.173999 0.68113703
-0.059355199 -0.17440701 0.68432802
-0.0537901 -0.173852 0.68350297
-0.048429102 -0.17282 0.68067801
-0.0432113 -0.171553 0.67685801
-0.038042702 -0.17029101 0.67304498
-0.032669801 -0.169507 0.671233
-0.027313501 -0.168723 0.669424
-0.0219735 -0.167942 0.66761702
-0.0163472 -0.167629 0.66779798
-0.010545 -0.167548 0.66896898
-0.0047098598 -0.167463 0.67013502
0.0013340299 -0.167606 0.67228502
0.0076114102 -0.167974 0.67541701
0.0139544 -0.168336 0.67853802
-0.105376 -0.17415801 0.675897
-0.099960499 -0.173371 0.674079
-0.094526596 -0.172829 0.67327303
-0.089092799 -0.172287 0.67246801
-0.0836078 -0.171986 0.67267001
-0.078047298 -0.17192499 0.673877
-0.072386302 -0.17210101 0.67608398
-0.0665249 -0.17275099 0.68029201
-0.0605813 -0.173393 0.68448901
-0.054923899 -0.173076 0.68466502
-0.0494508 -0.17228299 0.68283898
-0.044211101 -0.171019 0.67901599
-0.039137401 -0.169525 0.67420202
-0.0338796 -0.168506 0.67139202
-0.0285214 -0.167724 0.66958201
-0.0230383 -0.16717701 0.668769
-0.017405501 -0.166862 0.66895002
-0.0117564 -0.166546 0.669128
-0.0059249899 -0.166458 0.67029399
0.000113568 -0.16659699 0.672445
0.0063836798 -0.166959 0.675578
0.0127194 -0.16731501 0.67869997
0.0189221 -0.167436 0.68082702
-0.102244 -0.172489 0.67439699
-0.0968104 -0.171947 0.67359102
-0.091376603 -0.171405 0.672786
-0.085895099 -0.171103 0.67298901
-0.080397204 -0.1708 0.67318898
-0.074754901 -0.170972 0.67539901
-0.068990998 -0.171379 0.67860597
-0.063000701 -0.172253 0.68381101
-0.057177801 -0.172407 0.68599403
-0.051693 -0.171615 0.684165
-0.046329699 -0.170589 0.68133903
-0.041225702 -0.169099 0.676521
-0.036065899 -0.167849 0.67271
-0.0306962 -0.16706701 0.67089897
-0.025204901 -0.166519 0.67008501
-0.019713501 -0.165971 0.66927099
-0.0140677 -0.165654 0.66944897
-0.0084057301 -0.165334 0.66962498
-0.00238583 -0.16546901 0.67177898
0.0040411698 -0.166054 0.67590398
0.010176 -0.166178 0.67804003
0.016555499 -0.16652299 0.68115598
-0.104508 -0.171849 0.67572701
-0.099094301 -0.171065 0.67390901
-0.093660399 -0.170523 0.67310399
-0.088182397 -0.17022 0.673307
-0.082687899 -0.169916 0.67350799
-0.077055998 -0.170085 0.67571902
-0.071374699 -0.170248 0.67792302
-0.065336302 -0.171351 0.68413597
-0.059438501 -0.171737 0.68732297
-0.053942099 -0.170945 0.68549299
-0.048462 -0.170155 0.68366498
-0.043327902 -0.168668 0.67884201
-0.0381414 -0.16742 0.67502803
-0.0328779 -0.166407 0.67221701
-0.0275128 -0.165629 0.67040598
-0.021878799 -0.16531 0.67058599
-0.0163792 -0.16476101 0.66977102
-0.0107206 -0.164441 0.66994703
-0.0048783598 -0.164344 0.671112
0.00152331 -0.164924 0.67523998
0.0078232298 -0.16527 0.67836797
0.0141889 -0.165609 0.68148601
-0.10787 -0.171315 0.67721999
-0.102442 -0.170532 0.67540002
-0.0970309 -0.16975001 0.67358202
-0.091597103 -0.16920801 0.672777
-0.086068697 -0.16914 0.67398798
-0.080562897 -0.168833 0.674187
-0.074849702 -0.16923 0.67740202
-0.068998799 -0.169856 0.681611
-0.062986001 -0.170708 0.68681198
-0.057227701 -0.170617 0.687989
-0.0518227 -0.169594 0.685157
-0.046450499 -0.16857401 0.68233001
-0.041336998 -0.167096 0.67751098
-0.036168002 -0.16585501 0.67369902
-0.030789601 -0.165076 0.67188603
-0.025289999 -0.164528 0.67107099
-0.0197905 -0.16397899 0.67025602
-0.014137 -0.16365699 0.67043298
-0.0084671099 -0.163333 0.67060798
-0.0024399001 -0.163458 0.67276001
0.0039936001 -0.16402499 0.67688298
0.0103224 -0.164361 0.68000698
0.016717 -0.164691 0.68312001
-0.1058 -0.16999599 0.67689198
-0.100402 -0.16897701 0.674061
-0.094967604 -0.16843501 0.67325598
-0.089491598 -0.168129 0.67345899
-0.083898298 -0.168291 0.67567599
-0.067784503 -0.16932601 0.68445599
-0.061819699 -0.16993199 0.688649
-0.056221701 -0.16937301 0.687819
-0.050721601 -0.168585 0.68598801
-0.0454503 -0.167338 0.68216097
-0.0403427 -0.165868 0.677342
-0.035178199 -0.16463199 0.673531
-0.0298013 -0.163855 0.67171901
-0.0243017 -0.163307 0.67090303
-0.0186549 -0.162983 0.67108202
-0.0129917 -0.16265801 0.67125702
-0.0073121199 -0.162332 0.67143101
-0.00110051 -0.162673 0.67457098
0.0053568198 -0.163229 0.67869103
0.0115198 -0.16333599 0.68082303
0.017928399 -0.16365699 0.68393397
-0.105911 -0.16889399 0.67688799
-0.100512 -0.167878 0.67405701
-0.095077902 -0.167336 0.67325199
-0.089602001 -0.16702799 0.673455
-0.0840092 -0.16718701 0.67567199
-0.0783673 -0.167339 0.677881
-0.065292001 -0.169136 0.68914199
-0.059609301 -0.168808 0.68931502
-0.054095998 -0.168019 0.687482
-0.048700199 -0.16700301 0.68465197
-0.0435558 -0.165536 0.67982799
-0.038359601 -0.16430099 0.67601198
-0.033086799 -0.16329899 0.67320001
-0.027713099 -0.162523 0.67138797
-0.0220713 -0.1622 0.67156702
-0.016413299 -0.161873 0.67174399
-0.0108973 -0.161323 0.67092597
-0.0048810299 -0.161438 0.67308003
0.00135952 -0.16177 0.67621601
0.0076657399 -0.16209599 0.67934197
0.014229 -0.162634 0.68344599
0.020674599 -0.162944 0.68655199
-0.104932 -0.16768301 0.67672199
-0.099535301 -0.16667201 0.67389202
-0.094101399 -0.16612899 0.67308599
-0.088624001 -0.16582 0.673289
-0.082975097 -0.16620401 0.67651302
-0.077260599 -0.166582 0.67972702
-0.066450499 -0.168346 0.69030797
-0.0607614 -0.168014 0.69047898
-0.055238102 -0.167227 0.68864602
-0.049830399 -0.16621301 0.68581301
-0.0445631 -0.164977 0.68198699
-0.0394607 -0.16352101 0.67716902
-0.034176201 -0.16251899 0.67435598
-0.028792299 -0.161746 0.67254198
-0.023284599 -0.16119599 0.67172599
-0.0176284 -0.160868 0.67190301
-0.0119556 -0.160539 0.672077
-0.00610149 -0.160429 0.67324001
0.000131792 -0.16075499 0.676377
0.0062493398 -0.160855 0.67851597
0.0127952 -0.161386 0.68262202
0.019225599 -0.16169199 0.68572903
-0.106132 -0.16669101 0.67687899
-0.100707 -0.165914 0.67505997
-0.095298402 -0.165139 0.67324299
-0.0898645 -0.164597 0.67243701
-0.084181197 -0.165206 0.67667103
-0.078473903 -0.16557799 0.67988598
-0.069997698 -0.167319 0.68979698
-0.064166203 -0.16744401 0.69197798
-0.0585435 -0.16688301 0.691145
-0.053109299 -0.165869 0.68830901
-0.047810402 -0.164635 0.68447697
-0.0426712 -0.16318201 0.67965502
-0.037478901 -0.16195799 0.67583901
-0.032081701 -0.161184 0.67402399
-0.026701 -0.160412 0.67221099
-0.0210499 -0.16008399 0.67238897
-0.0155338 -0.15953299 0.67157102
-0.0098580299 -0.15920199 0.671745
-0.0038296301 -0.159306 0.67389703
0.00260058 -0.15984 0.67802
0.0087440303 -0.159934 0.68015498
0.0155146 -0.160669 0.68524301
-0.109501 -0.16614699 0.67837298
-0.104062 -0.165372 0.676552
-0.098669 -0.16436601 0.67372203
-0.093271598 -0.16359501 0.67190599
-0.0877565 -0.16351099 0.67311901
-0.0820494 -0.16410901 0.67734897
-0.076198898 -0.16492701 0.68257302
-0.069972403 -0.166641 0.69180202
-0.064202704 -0.16653299 0.69297701
-0.058571801 -0.165971 0.69214201
-0.0532231 -0.164736 0.68830401
-0.047923598 -0.163507 0.68447298
-0.042673301 -0.162282 0.68064898
-0.0374723 -0.161063 0.67683297
-0.032193702 -0.160069 0.67401999
-0.0266777 -0.159519 0.67320198
-0.0211618 -0.158968 0.67238402
-0.0156458 -0.158418 0.67156702
-0.0098104104 -0.15830299 0.672732
-0.0037743 -0.158401 0.67488301
0.0024872399 -0.158711 0.67801601
0.0088143097 -0.159013 0.68113798
0.0153997 -0.15952399 0.685238
-0.110703 -0.165153 0.67852998
-0.105245 -0.164608 0.67772102
-0.099839397 -0.163606 0.67488998
-0.094466902 -0.162605 0.67206299
-0.089084104 -0.161837 0.67025
-0.083308399 -0.162884 0.67650002
-0.075079396 -0.164149 0.684416
-0.068821602 -0.16584399 0.69363999
-0.063032597 -0.16573 0.69481301
-0.057559799 -0.16472 0.691971
-0.052215599 -0.163491 0.688133
-0.046920601 -0.162267 0.68430299
-0.0417866 -0.160827 0.67948103
-0.036598202 -0.159614 0.67566699
-0.031202501 -0.15884399 0.67385203
-0.025686501 -0.15829299 0.67303401
-0.020170501 -0.15774301 0.672216
-0.0145016 -0.157409 0.672391
-0.0086549604 -0.15729 0.67355502
-0.0026062201 -0.157382 0.675704
0.00366939 -0.157684 0.67883402
0.0100106 -0.157978 0.68195498
0.0166116 -0.15847901 0.68605202
-0.110814 -0.164049 0.67852598
-0.105356 -0.163505 0.67771697
-0.099923402 -0.162733 0.67589599
-0.0946116 -0.161282 0.671049
-0.0892369 -0.16051599 0.66923702
-0.0751919 -0.163028 0.684412
-0.068865098 -0.164929 0.69463998
-0.063068204 -0.164811 0.69581097
-0.057674099 -0.163582 0.691966
-0.052329302 -0.162357 0.68812901
-0.047033802 -0.161139 0.68429798
-0.041899201 -0.159706 0.67947698
-0.036590301 -0.15871599 0.67666
-0.031314299 -0.157729 0.67384702
-0.0257983 -0.157179 0.67303002
-0.020282401 -0.156629 0.672212
-0.0146136 -0.156293 0.672387
-0.0087674102 -0.15617 0.67355001
-0.00254995 -0.15647 0.67668903
0.00355575 -0.156551 0.67883003
0.0098964004 -0.15684 0.68194997
0.016690399 -0.157543 0.68703401
-0.112017 -0.163055 0.67868298
-0.106574 -0.162284 0.676862
-0.101124 -0.16174001 0.676054
-0.095804997 -0.16029499 0.67120498
-0.089432001 -0.15897401 0.66721499
-0.076475002 -0.16179401 0.68356597
-0.0701074 -0.163901 0.694803
-0.064236999 -0.164001 0.69697797
-0.058743902 -0.162995 0.694134
-0.053470802 -0.16155601 0.68929201
-0.048161499 -0.16034099 0.68545902
-0.043011501 -0.158912 0.68063599
-0.037808999 -0.157708 0.67681903
-0.0324031 -0.156939 0.67500299
-0.027013499 -0.156174 0.67318898
-0.021497499 -0.155623 0.67237097
-0.015830601 -0.155286 0.67254603
-0.0099879699 -0.15515999 0.67370999
-0.00377768 -0.15545499 0.67685002
0.00232259 -0.155532 0.67899102
0.0084720803 -0.155604 0.68112499
0.0152471 -0.156299 0.68621099
0.021719901 -0.15656701 0.68931198
-0.108865 -0.16140001 0.67717999
-0.103415 -0.16085599 0.67637199
-0.098023199 -0.15986399 0.67354298
-0.090660699 -0.15776899 0.66636097
-0.078975499 -0.16023099 0.68087
-0.072673902 -0.16232499 0.69211698
-0.066543698 -0.16330101 0.69831401
-0.060953502 -0.162517 0.69647002
-0.055650201 -0.161081 0.69162399
-0.050412599 -0.159651 0.68678701
-0.045134 -0.158444 0.68295902
-0.040019501 -0.15702599 0.678141
-0.0346018 -0.156258 0.676323
-0.0292006 -0.15549199 0.67450702
-0.023676399 -0.15494099 0.67368799
-0.0181523 -0.15439001 0.67286903
-0.0124723 -0.15404999 0.673042
-0.00628408 -0.15434 0.67618501
-0.000202364 -0.154414 0.67832899
0.00592859 -0.15448301 0.68046498
0.0124861 -0.154963 0.684569
0.0193223 -0.155641 0.68964601
-0.111146 -0.160739 0.67851299
-0.105688 -0.16019399 0.67770398
-0.100281 -0.159205 0.67487198
-0.095009498 -0.157553 0.66901499
-0.089735404 -0.156352 0.66518903
-0.083904304 -0.157796 0.67346001
-0.077866599 -0.159446 0.682715
-0.071396999 -0.161952 0.69596601
-0.065374002 -0.162477 0.700149
-0.059935801 -0.161259 0.69629699
-0.0546383 -0.15983 0.69145203
-0.049406599 -0.158407 0.686616
-0.044240501 -0.156991 0.68178999
-0.039023802 -0.15579499 0.67797202
-0.033732001 -0.154817 0.67515802
-0.0282079 -0.154266 0.674339
-0.022683701 -0.153715 0.67352003
-0.017159499 -0.153163 0.672701
-0.0113209 -0.15303101 0.67386597
-0.0051185498 -0.153313 0.67700601
0.00097579899 -0.15338001 0.67914802
0.0071195001 -0.15344299 0.68128198
0.0136925 -0.15391301 0.68538302
0.0207441 -0.15478501 0.69144303
-0.111257 -0.15963601 0.67850798
-0.105799 -0.159091 0.67769903
-0.100392 -0.158104 0.67486799
-0.095152996 -0.156241 0.668001
-0.089844599 -0.15526401 0.66518402
-0.0840149 -0.15669399 0.673455
-0.077803202 -0.15898 0.68572903
-0.071378097 -0.161244 0.697972
-0.065414399 -0.161543 0.70114797
-0.0600507 -0.16011401 0.696293
-0.054752599 -0.158692 0.69144797
-0.049520101 -0.15727501 0.68661201
-0.0442455 -0.15607899 0.68278497
-0.039136302 -0.15467501 0.67796803
-0.033719901 -0.15391099 0.67615002
-0.02832 -0.153148 0.67433399
-0.0227958 -0.152597 0.67351502
-0.017271601 -0.15204599 0.67269701
-0.0114333 -0.15191101 0.67386103
-0.00523159 -0.15218601 0.67700201
0.00086225499 -0.15224899 0.67914402
0.00700536 -0.15230601 0.68127799
0.0137675 -0.152973 0.68636602
0.020826099 -0.153832 0.692424
-0.111368 -0.15853199 0.67850399
-0.105909 -0.157988 0.67769498
-0.100476 -0.157224 0.67587399
-0.095262498 -0.15515099 0.667997
-0.089953601 -0.15417799 0.66518003
-0.083974898 -0.156243 0.67647302
-0.077740699 -0.15850399 0.68874401
-0.071426399 -0.16031399 0.698973
-0.065530002 -0.160391 0.70114303
-0.0600826 -0.159182 0.69729102
-0.054866798 -0.157554 0.69144303
-0.0496337 -0.15614399 0.686607
-0.044358701 -0.154952 0.68278098
-0.039248601 -0.15355501 0.67796302
-0.033832099 -0.15279301 0.67614502
-0.028432099 -0.152032 0.67433
-0.0229079 -0.151481 0.67351103
-0.0173837 -0.15093 0.672692
-0.0113888 -0.150997 0.67484802
-0.0051795999 -0.151265 0.67798799
0.00092195702 -0.15132099 0.68012798
0.0070728702 -0.151374 0.68226099
0.0138421 -0.15202899 0.68734801
0.0211058 -0.153079 0.69439101
-0.111487 -0.15720899 0.677486
-0.10602 -0.156884 0.67769003
-0.100587 -0.156122 0.67587
-0.095371798 -0.154061 0.667992
-0.089979 -0.153523 0.667193
-0.083785802 -0.156427 0.68251401
-0.077621102 -0.158233 0.692765
-0.0714086 -0.159595 0.70097798
-0.065570898 -0.159453 0.70214301
-0.060114801 -0.15824801 0.69828898
-0.054889999 -0.156626 0.69243997
-0.049747299 -0.155012 0.68660301
-0.0444717 -0.153825 0.68277597
-0.039361 -0.152435 0.67795902
-0.033944398 -0.151674 0.67614102
-0.0285441 -0.150916 0.67432499
-0.023019901 -0.150364 0.67350698
-0.017495699 -0.149813 0.67268801
-0.0115014 -0.149875 0.67484403
-0.0052928501 -0.15013599 0.67798299
0.00080821302 -0.150188 0.68012398
0.0069586202 -0.150235 0.682257
0.014106 -0.151283 0.68931699
0.021186899 -0.152117 0.69537199
-0.112681 -0.156434 0.678657
-0.107222 -0.15589 0.67784798
-0.101788 -0.155129 0.676027
-0.096496299 -0.15350901 0.67016798
-0.091206998 -0.152326 0.66633999
-0.084954403 -0.155634 0.68368101
-0.078745 -0.157637 0.69493997
-0.072661698 -0.158558 0.70114201
-0.0668277 -0.15841299 0.70230699
-0.061285 -0.157423 0.69945598
-0.056042999 -0.155808 0.69360399
-0.050785501 -0.15441 0.68876499
-0.045593798 -0.153018 0.683936
-0.040467601 -0.15163299 0.67911702
-0.035163101 -0.150666 0.67629999
-0.0297611 -0.14990801 0.67448503
-0.0242368 -0.14935701 0.673666
-0.018712699 -0.14880601 0.67284697
-0.0128787 -0.148661 0.67401201
-0.0065224199 -0.149119 0.67814398
-0.000426782 -0.149166 0.68028498
0.0057182 -0.14920899 0.682419
0.0126633 -0.15004499 0.68849403
0.0201154 -0.15126801 0.69652402
-0.114975 -0.155549 0.678976
-0.109517 -0.15500399 0.67816699
-0.104058 -0.154459 0.67735797
-0.098684698 -0.153273 0.67351699
-0.093433499 -0.151666 0.66766399
-0.087279603 -0.154737 0.68400502
-0.078634299 -0.157342 0.69896102
-0.072712697 -0.157619 0.70214301
-0.066943496 -0.15726 0.70230299
-0.061400399 -0.15627401 0.69945103
-0.056068402 -0.154875 0.694601
-0.050899401 -0.153275 0.688761
-0.045601498 -0.152096 0.68493098
-0.040466599 -0.15071601 0.68010998
-0.035275299 -0.14954799 0.676296
-0.029873099 -0.148792 0.67448002
-0.0243489 -0.148241 0.67366099
-0.018824801 -0.14769 0.67284298
-0.012991 -0.147542 0.67400801
-0.0067986599 -0.14779 0.677149
-0.00054052501 -0.14803299 0.68028098
0.0057832701 -0.148269 0.68340302
0.0129232 -0.14929099 0.69046402
0.020390101 -0.150498 0.69849098
-0.115086 -0.15444501 0.67897201
-0.109627 -0.153901 0.67816299
-0.104149 -0.153569 0.67836499
-0.0987949 -0.15217499 0.67351198
-0.088455401 -0.15394001 0.68517298
-0.079773001 -0.15673 0.70113802
-0.073904902 -0.15679 0.70331299
-0.068129197 -0.15642899 0.703471
-0.062574401 -0.155444 0.70061803
-0.057227001 -0.15405101 0.69576597
-0.051945299 -0.15266301 0.69092399
-0.0467292 -0.151282 0.68609101
-0.041578799 -0.14990801 0.68126899
-0.036373898 -0.148743 0.67745298
-0.0309617 -0.14798801 0.67563498
-0.025565799 -0.14723501 0.67382097
-0.0200416 -0.14668401 0.673002
-0.0142116 -0.146532 0.67416698
-0.0080263903 -0.14677501 0.67730999
-0.00177552 -0.147012 0.68044299
0.0045411098 -0.14724299 0.68356597
0.0114806 -0.148056 0.689641
0.019117201 -0.149445 0.69865698
-0.11629 -0.153238 0.67811501
-0.11083 -0.152906 0.67831999
-0.105353 -0.152574 0.678523
-0.099939197 -0.15160599 0.67569101
-0.085798703 -0.15510499 0.69693601
-0.079779603 -0.15599801 0.70314699
-0.073958099 -0.155844 0.70431399
-0.068245202 -0.155274 0.70346701
-0.062689997 -0.154293 0.70061398
-0.0573419 -0.152905 0.69576198
-0.052059501 -0.15152501 0.69091898
-0.046842799 -0.15015 0.68608701
-0.041579999 -0.148985 0.682262
-0.036366399 -0.147825 0.67844498
-0.0310739 -0.14687 0.67563099
-0.025541499 -0.146318 0.67481101
-0.020009199 -0.145766 0.67399102
-0.014324 -0.145412 0.67416298
-0.0079784803 -0.14584599 0.67829603
-0.00172001 -0.146075 0.68142802
0.0046040299 -0.14629801 0.68454999
0.0115506 -0.147099 0.690624
0.0191937 -0.148471 0.69963902
-0.116401 -0.152136 0.67811
-0.110941 -0.151803 0.678316
-0.105464 -0.15146799 0.67851901
-0.100024 -0.150713 0.67669702
-0.084499903 -0.155094 0.70280999
-0.078588597 -0.155351 0.705993
-0.072867401 -0.15478 0.705145
-0.067218401 -0.15400501 0.70329303
-0.061666299 -0.153027 0.70043999
-0.056324098 -0.151647 0.69558901
-0.0510475 -0.15027501 0.69074798
-0.045836799 -0.14890701 0.68591601
-0.040578399 -0.147747 0.68209302
-0.035369299 -0.14659201 0.678276
-0.02995 -0.14584 0.676458
-0.024547299 -0.145089 0.67464203
-0.019014901 -0.144537 0.67382199
-0.0130198 -0.144574 0.675978
-0.0068129101 -0.144802 0.67911702
-0.00054035097 -0.145023 0.68224603
0.0059766802 -0.145431 0.68635398
0.01295 -0.146218 0.692424
0.0206243 -0.14757 0.70143402
-0.115421 -0.150925 0.677944
-0.10996 -0.15059 0.67815
-0.104462 -0.150462 0.67936403
-0.099014997 -0.149708 0.67754197
-0.086846597 -0.154377 0.70415097
-0.080940798 -0.15462799 0.707335
-0.075211503 -0.154056 0.70648497
-0.069550902 -0.153281 0.70463198
-0.0639835 -0.15230601 0.70177698
-0.058534201 -0.151132 0.69792497
-0.053320799 -0.149562 0.69207799
-0.0479865 -0.148398 0.68824297
-0.0427013 -0.147241 0.684416
-0.037465401 -0.146088 0.68059498
-0.032278702 -0.144941 0.67678201
-0.026872501 -0.144191 0.67496598
-0.0213401 -0.143639 0.674146
-0.0156569 -0.143282 0.67431802
-0.0093212901 -0.1437 0.67845303
-0.0030707801 -0.14391699 0.68158501
0.0032454999 -0.14412799 0.684708
0.0101782 -0.144906 0.69078398
0.0176096 -0.146055 0.69881499
0.0245887 -0.14662001 0.70386899
-0.113346 -0.14981399 0.67863101
-0.107858 -0.149683 0.679847
-0.102383 -0.14913701 0.67903501
-0.096908398 -0.148591 0.67822301
-0.083251096 -0.15410601 0.70968503
-0.077505298 -0.153532 0.70883298
-0.071890101 -0.152555 0.705971
-0.066381097 -0.15138 0.70210999
-0.060839798 -0.15041 0.69926
-0.055421099 -0.14924499 0.69541198
-0.050149899 -0.14788499 0.69057202
-0.044944301 -0.146532 0.68574101
-0.039689802 -0.145383 0.68191803
-0.034361899 -0.14443401 0.67909902
-0.029066799 -0.143489 0.67628503
-0.0236653 -0.14274199 0.67446899
-0.017985599 -0.14238299 0.67464203
-0.0118227 -0.142602 0.67778802
-0.0057579898 -0.14262199 0.67993301
0.00069998601 -0.14302 0.68404901
0.0072400002 -0.14341 0.68815303
0.0144274 -0.14436001 0.69520599
0.021746101 -0.14529701 0.70223802
-0.116731 -0.149037 0.67911202
-0.111264 -0.148698 0.67931598
-0.105779 -0.148358 0.67951798
-0.100304 -0.14781199 0.67870599
-0.094829403 -0.147266 0.677894
-0.083319001 -0.153146 0.71068799
-0.0776219 -0.152371 0.70882797
-0.0720063 -0.151397 0.70596701
-0.066496901 -0.150227 0.702106
-0.0609551 -0.149261 0.69925499
-0.055536099 -0.14809901 0.69540799
-0.050264198 -0.14674599 0.69056702
-0.0449517 -0.145596 0.68673599
-0.039688598 -0.14445101 0.68291199
-0.034352001 -0.14350601 0.68009102
-0.0290484 -0.142562 0.67727602
-0.0236386 -0.141817 0.67545903
-0.0180979 -0.14126401 0.67463797
-0.0119359 -0.14147501 0.67778301
-0.0058715302 -0.141491 0.679928
0.00058554299 -0.14188001 0.68404502
0.0073048999 -0.14245 0.68913698
0.0141226 -0.14301001 0.69421399
0.021431699 -0.14393499 0.70124799
-0.116841 -0.148138 0.68012202
-0.111365 -0.147797 0.68032497
-0.105873 -0.14745501 0.680525
-0.100364 -0.14711 0.68072301
-0.094906799 -0.14636099 0.6789
-0.076647699 -0.150895 0.70764703
-0.070976697 -0.150124 0.70579201
-0.065471701 -0.14895999 0.70193201
-0.059932899 -0.14799701 0.69908202
-0.054609399 -0.14664599 0.69423401
-0.049252301 -0.145496 0.69039601
-0.043944199 -0.14435101 0.68656498
-0.038685501 -0.14321101 0.682742
-0.033351999 -0.142269 0.67992198
-0.028051199 -0.14133 0.67710698
-0.022642899 -0.140586 0.67528999
-0.016953601 -0.140223 0.67546201
-0.0107774 -0.14042699 0.67860502
-0.0045354101 -0.140624 0.68173802
0.00177231 -0.140816 0.68486202
0.0085085602 -0.14137401 0.689951
0.0153434 -0.141922 0.69502598
0.022672599 -0.142831 0.702057
-0.115856 -0.147127 0.68097001
-0.110382 -0.14658099 0.68015802
-0.104869 -0.146438 0.68137002
-0.099350497 -0.146091 0.68156701
-0.079004198 -0.150162 0.70898998
-0.073321603 -0.149391 0.707133
-0.067726701 -0.14842699 0.704274
-0.0621645 -0.14746501 0.70142001
-0.056810901 -0.146117 0.69656801
-0.051522799 -0.144777 0.69172603
-0.046196301 -0.143635 0.68789202
-0.040806599 -0.14269 0.68506402
-0.035570301 -0.14155801 0.68124402
-0.030254601 -0.14062101 0.67842698
-0.0249715 -0.139686 0.675614
-0.019285699 -0.139323 0.67578602
-0.0132766 -0.13933399 0.677939
-0.0070567299 -0.13952599 0.68107599
-0.00094096398 -0.13952599 0.683213
0.0057582902 -0.14007799 0.688308
0.0123697 -0.14043599 0.69240099
0.019841 -0.14151999 0.70042503
0.0270548 -0.142224 0.70645797
-0.112675 -0.145895 0.68149197
-0.107161 -0.14574701 0.68270397
-0.101662 -0.145199 0.68188798
-0.0803762 -0.14872301 0.707142
-0.074585401 -0.14834701 0.70729798
-0.068986997 -0.147384 0.70443898
-0.063421302 -0.14642601 0.70158499
-0.057974402 -0.14527801 0.697734
-0.052765101 -0.143749 0.69188797
-0.047433101 -0.142612 0.68805403
-0.0420398 -0.141671 0.68522602
-0.036679301 -0.14073201 0.68240201
-0.0313516 -0.139797 0.67958301
-0.026056901 -0.13886499 0.67676902
-0.020508099 -0.138312 0.675946
-0.0145045 -0.138317 0.67809999
-0.0082917204 -0.138505 0.681238
-0.0021813801 -0.13850001 0.68337601
0.0043307599 -0.138859 0.68748301
0.0107405 -0.139026 0.69059098
0.017986501 -0.139917 0.69763398
0.025363799 -0.14079399 0.70465702
-0.113878 -0.14509501 0.68266398
-0.10836 -0.144944 0.68387502
-0.102852 -0.14439499 0.68305802
-0.078144401 -0.14753 0.70780402
-0.072406799 -0.14695799 0.70695299
-0.066814601 -0.146 0.70409501
-0.061336 -0.144853 0.700239
-0.055995598 -0.14352 0.69538897
-0.050721101 -0.142193 0.69054902
-0.0453013 -0.14125299 0.68771702
-0.040027902 -0.140126 0.683891
-0.034681801 -0.139193 0.68107003
-0.0293686 -0.138263 0.678253
-0.023811599 -0.13770901 0.67742902
-0.0181081 -0.137339 0.677598
-0.0120787 -0.137338 0.679748
-0.0060000299 -0.13733099 0.68189102
0.00029912 -0.137504 0.68501598
0.00666379 -0.137669 0.68813002
0.0132818 -0.138008 0.692222
0.0209607 -0.13924199 0.70122898
-0.117284 -0.144511 0.68416202
-0.111776 -0.144161 0.68436003
-0.106251 -0.14380699 0.68455601
-0.080608703 -0.14640599 0.707133
-0.0747573 -0.146219 0.70829397
-0.069149897 -0.145263 0.70543402
-0.063652799 -0.14411999 0.70157599
-0.0582048 -0.14298099 0.69772398
-0.052900098 -0.14165799 0.69287997
-0.0475589 -0.14053001 0.68904501
-0.042266902 -0.13940699 0.68521702
-0.036905799 -0.138475 0.68239301
-0.031577501 -0.137547 0.67957401
-0.0261472 -0.13680699 0.67775398
-0.0205901 -0.136253 0.67693102
-0.0147306 -0.13606501 0.67809099
-0.0085192099 -0.13623799 0.68122798
-0.00240987 -0.136223 0.683366
0.0039247 -0.13638499 0.68648601
0.010509 -0.13672 0.69058198
0.017752299 -0.137584 0.69762498
0.025126999 -0.13843501 0.70464802
-0.114086 -0.143463 0.68569601
-0.108556 -0.143108 0.68589097
-0.084400997 -0.144631 0.7026
-0.078321397 -0.145401 0.70880097
-0.072575599 -0.14482801 0.70794898
-0.067046702 -0.143686 0.70408601
-0.061486602 -0.142739 0.70123303
-0.056225501 -0.14123 0.69537997
-0.0509496 -0.139917 0.69054002
-0.045634199 -0.138796 0.68670899
-0.0402546 -0.137867 0.683882
-0.034786399 -0.137124 0.68205702
-0.029464301 -0.1362 0.67923898
-0.0240371 -0.135462 0.67742002
-0.018333901 -0.13508999 0.677589
-0.0123055 -0.135078 0.679739
-0.0062278202 -0.13506199 0.68188202
6.99347e-05 -0.13522001 0.68500602
0.00643331 -0.135372 0.68812102
0.0130496 -0.135695 0.692213
0.0207252 -0.136896 0.70121998
0.027953999 -0.13755099 0.70725
-0.111983 -0.142322 0.686378
-0.106426 -0.142158 0.68758303
-0.080736302 -0.14446899 0.70913702
-0.074929804 -0.144085 0.70929003
-0.069313601 -0.143135 0.706429
-0.063807197 -0.142 0.70256901
-0.058435299 -0.14068501 0.69771498
-0.053222802 -0.139189 0.69186997
-0.0478887 -0.138072 0.68803602
-0.0424941 -0.137144 0.68520802
-0.0371323 -0.13621899 0.68238401
-0.031677 -0.135479 0.68056101
-0.026238101 -0.13474201 0.67874002
-0.020672901 -0.134187 0.67791498
-0.0149567 -0.133811 0.67808199
-0.0087467004 -0.13397101 0.68121898
-0.00263835 -0.133947 0.683357
0.0036949201 -0.134096 0.68647599
0.0102775 -0.134414 0.69057298
0.0173262 -0.135075 0.69662899
0.0248903 -0.136076 0.704638
-0.115406 -0.141729 0.68787903
-0.109863 -0.141369 0.68807101
-0.104264 -0.14139 0.69028503
-0.0784989 -0.14326601 0.70979798
-0.072744898 -0.142692 0.70894498
-0.067206897 -0.14156 0.70507997
-0.061718099 -0.140432 0.70122403
-0.056455299 -0.13894001 0.69537097
-0.051178101 -0.13764 0.69053102
-0.045861699 -0.13653 0.68669999
-0.040368401 -0.13578901 0.68487102
-0.035012901 -0.134868 0.68204802
-0.0296902 -0.13395 0.67922997
-0.0241249 -0.133394 0.67840499
-0.018413801 -0.133018 0.67857301
-0.0125324 -0.132818 0.67973
-0.0064555998 -0.132792 0.68187302
-0.00015925099 -0.132937 0.68499702
0.0062028202 -0.133076 0.68811202
0.0128176 -0.13338199 0.692204
0.020294599 -0.134376 0.700225
0.027512999 -0.13500901 0.70625597
-0.113305 -0.14038999 0.68754601
-0.10773 -0.14040899 0.68976301
-0.083169997 -0.142749 0.711483
-0.0774078 -0.142175 0.71062797
-0.0717761 -0.141229 0.70776498
-0.066250801 -0.140103 0.70390201
-0.060774598 -0.138981 0.70004702
-0.055437598 -0.13768201 0.69519901
-0.050264198 -0.136208 0.68936002
-0.044854201 -0.135285 0.68652898
-0.039362401 -0.134546 0.68470103
-0.0340099 -0.133628 0.68187797
-0.0285592 -0.132892 0.68005598
-0.023124799 -0.13215899 0.67823601
-0.017264999 -0.13195699 0.67939597
-0.0113722 -0.131753 0.68055099
-0.0051191901 -0.13189501 0.68368202
0.00102755 -0.13185599 0.68581402
0.0074037099 -0.13198701 0.68892699
0.0142224 -0.132457 0.69400197
0.0217293 -0.133433 0.70201898
-0.117845 -0.13990299 0.68921202
-0.112304 -0.13935 0.68839097
-0.106716 -0.13936301 0.690606
-0.082033902 -0.141839 0.71332097
-0.076313801 -0.14107899 0.71145898
-0.070743598 -0.139953 0.70758998
-0.065222599 -0.138832 0.70372802
-0.059750799 -0.13771699 0.69987398
-0.0545111 -0.136243 0.69402498
-0.0492539 -0.134959 0.68918902
-0.043954398 -0.13386001 0.68536001
-0.038472399 -0.133123 0.68353301
-0.033006798 -0.132388 0.68170798
-0.0275575 -0.13165499 0.67988598
-0.021984 -0.131098 0.67905998
-0.016113101 -0.13089301 0.68021899
-0.0102092 -0.130683 0.68137199
-0.0041072601 -0.13064399 0.68351102
0.0022174399 -0.13077401 0.68663102
0.0087893503 -0.13106801 0.69072801
0.0154433 -0.131354 0.69481403
0.022773599 -0.13214201 0.70184201
-0.117957 -0.13878299 0.68920797
-0.112416 -0.13823 0.68838698
-0.106813 -0.13842499 0.69161302
-0.082101002 -0.140854 0.71432298
-0.076430902 -0.13991199 0.71145397
-0.070860103 -0.13879199 0.70758498
-0.065338701 -0.137675 0.70372403
-0.059866499 -0.136564 0.69986898
-0.054625899 -0.13510001 0.69402099
-0.049367901 -0.13382301 0.68918401
-0.0439604 -0.132906 0.68635398
-0.038469899 -0.13217101 0.68452603
-0.033119999 -0.13125999 0.68170398
-0.027670501 -0.130528 0.67988199
-0.0220971 -0.129972 0.67905599
-0.0162265 -0.12976199 0.68021399
-0.0103229 -0.12955 0.68136799
-0.0042214999 -0.12950601 0.68350601
0.0021025001 -0.129629 0.68662602
0.0086735999 -0.129915 0.69072402
0.0153268 -0.130193 0.69480902
0.0226558 -0.130968 0.70183802
-0.119177 -0.13777401 0.68936801
-0.113637 -0.13722099 0.688546
-0.108054 -0.137224 0.69076198
-0.085239902 -0.14185201 0.72490901
-0.079903603 -0.13945401 0.71397501
-0.074301198 -0.138335 0.71010202
-0.068747997 -0.13722099 0.706236
-0.063244201 -0.13611101 0.70237702
-0.057875499 -0.13483 0.69752401
-0.052572601 -0.133554 0.69268101
-0.047335401 -0.132285 0.68784702
-0.041942298 -0.131374 0.68501902
-0.036463201 -0.130641 0.68319201
-0.031000501 -0.12990899 0.68136799
-0.0255544 -0.129178 0.67954701
-0.0199809 -0.128622 0.67872101
-0.0139521 -0.128582 0.68087
-0.0080341697 -0.128364 0.68202102
-0.00191519 -0.128313 0.68415701
0.00460588 -0.12859599 0.68826199
0.0112089 -0.12887 0.69235498
0.018086899 -0.12930299 0.69742101
0.025264399 -0.129893 0.703457
