# .PCD v0.7 - Point Cloud Data file format
VERSION 0.7
FIELDS x y z
SIZE 4 4 4
TYPE F F F
COUNT 1 1 1
WIDTH 1374
HEIGHT 1
VIEWPOINT 0 0 0 1 0 0 0
POINTS 1374
DATA ascii
-0.0110398 -0.107147 0.689897
-0.0050303298 -0.107392 0.68874699
0.00061227498 -0.107947 0.68956399
0.0059372401 -0.108819 0.69235402
0.011295 -0.109695 0.69514799
0.0162584 -0.111051 0.70091498
0.021304 -0.112416 0.70669401
0.0259276 -0.114435 0.71645099
0.031052399 -0.115982 0.72325099
0.036495 -0.117212 0.72807801
-0.115208 -0.100031 0.70007497
-0.109344 -0.100609 0.70092303
-0.103786 -0.101328 0.70273697
-0.097913302 -0.101907 0.703587
-0.0932009 -0.103058 0.70830798
-0.088986702 -0.104505 0.71497601
-0.0827583 -0.104947 0.714867
-0.074953601 -0.104512 0.70892799
-0.067521103 -0.104212 0.70394498
-0.060685199 -0.104197 0.70089501
-0.0531925 -0.103731 0.694911
-0.046512701 -0.103702 0.69183803
-0.040347401 -0.103965 0.69071102
-0.033998799 -0.104075 0.6886
-0.027907399 -0.104331 0.68746197
-0.0222483 -0.104888 0.68827999
-0.016780799 -0.105599 0.690081
-0.0109302 -0.106003 0.68991798
-0.0049209599 -0.106251 0.68876803
0.00055475201 -0.106962 0.69057
0.0060469001 -0.107675 0.69237399
0.0112545 -0.108704 0.69615698
0.016369199 -0.109896 0.70093602
0.021281499 -0.111411 0.70770502
0.026040601 -0.113257 0.71647203
0.031166401 -0.114793 0.72327203
0.036609601 -0.116017 0.72809899
-0.117766 -0.098752402 0.700719
-0.111893 -0.099330902 0.70156902
-0.10633 -0.10005 0.70338398
-0.100148 -0.100488 0.703269
-0.093982399 -0.100925 0.70315099
-0.089828201 -0.102356 0.70981002
-0.0850216 -0.10351 0.71454501
-0.078000799 -0.103521 0.71152198
-0.0702646 -0.103092 0.70557302
-0.063399799 -0.103086 0.70252699
-0.0561128 -0.102782 0.69752198
-0.049160101 -0.102615 0.693479
-0.042744499 -0.102736 0.691378
-0.036378302 -0.102853 0.68927002
-0.0302724 -0.103113 0.68813401
-0.0244023 -0.103522 0.68797398
-0.0189378 -0.10423 0.68977398
-0.0132706 -0.104788 0.69059402
-0.00724696 -0.105041 0.68944597
-0.00142603 -0.105444 0.68927801
0.00389295 -0.106309 0.69206703
0.0093984203 -0.107021 0.693874
0.0143387 -0.108359 0.699637
0.0194984 -0.109549 0.70442301
0.024208 -0.111375 0.71318299
0.029290199 -0.112898 0.71997702
0.0345838 -0.11427 0.72579098
-0.120331 -0.097471103 0.70136303
-0.114129 -0.097913101 0.70125097
-0.108569 -0.098629698 0.70306498
-0.102688 -0.099209003 0.70391601
-0.096510597 -0.099648498 0.70380002
-0.091502696 -0.100648 0.70755398
-0.087005101 -0.101933 0.71325302
-0.080795102 -0.102377 0.71314198
-0.073284097 -0.102105 0.70817
-0.066126801 -0.101967 0.70415699
-0.0590517 -0.101821 0.700131
-0.051819898 -0.101522 0.69511902
-0.045378599 -0.10165 0.69302201
-0.0389864 -0.101773 0.69091702
-0.032643601 -0.101892 0.68880498
-0.026762201 -0.102304 0.68864697
-0.021095 -0.102862 0.68946701
-0.0154278 -0.10342 0.69028699
-0.0095790802 -0.103827 0.69012302
-0.0035737599 -0.104082 0.688972
0.00190395 -0.10479 0.69077498
0.00724127 -0.105653 0.69356602
0.012463 -0.106673 0.69735098
0.0175937 -0.107853 0.702133
0.022526 -0.109351 0.70890498
0.027309 -0.11117 0.71767497
0.032570399 -0.112532 0.72348499
0.038021501 -0.113743 0.72831303
-0.114336 -0.096862003 0.70223498
-0.10908 -0.097713597 0.705015
-0.102879 -0.0981576 0.70490301
-0.0963967 -0.098461203 0.703821
-0.090812497 -0.099179201 0.705639
-0.086330503 -0.100455 0.71133602
-0.080680199 -0.101179 0.71316397
-0.073433504 -0.101058 0.70916301
-0.066013597 -0.100786 0.70417798
-0.059186202 -0.100791 0.70112699
-0.051947199 -0.100503 0.69611502
-0.045267601 -0.100493 0.69304299
-0.0390983 -0.100767 0.69191599
-0.032533702 -0.100746 0.68882602
-0.026652399 -0.101158 0.688667
-0.020985199 -0.101716 0.68948698
-0.0153179 -0.102275 0.69030702
-0.0094694197 -0.102684 0.690144
-0.00363737 -0.103091 0.689978
0.00184865 -0.103799 0.69178098
0.0073511298 -0.104508 0.69358701
0.012425 -0.105675 0.69836003
0.017704699 -0.106696 0.70215398
0.0226379 -0.108183 0.70892602
0.027546 -0.109835 0.71670502
0.032684401 -0.111344 0.72350699
0.038136099 -0.112549 0.72833502
-0.114863 -0.095940299 0.704184
-0.109278 -0.096656397 0.706002
-0.103373 -0.097238101 0.70685601
-0.096579403 -0.0974105 0.70480901
-0.090698503 -0.097989798 0.70565999
-0.086215697 -0.099257998 0.71135801
-0.080565304 -0.099980503 0.71318501
-0.073319301 -0.099867597 0.709185
-0.066155396 -0.099746697 0.705172
-0.059073601 -0.099617697 0.70114797
-0.0518356 -0.099339202 0.696136
-0.045156699 -0.099336401 0.69306302
-0.0389877 -0.099613197 0.69193602
-0.0326376 -0.099743001 0.68982601
-0.0265425 -0.100013 0.68868798
-0.020875299 -0.100571 0.68950802
-0.0152081 -0.101129 0.690328
-0.0093597602 -0.10154 0.69016403
-0.00370079 -0.102098 0.690983
0.00179371 -0.102804 0.692788
0.0073045101 -0.103513 0.69459498
0.0125354 -0.104524 0.69838101
0.017815599 -0.105539 0.70217401
0.0227498 -0.107017 0.708947
0.027659001 -0.108657 0.71672601
0.032798398 -0.110155 0.72352803
0.0382507 -0.111353 0.728356
-0.115069 -0.094880402 0.70516902
-0.109476 -0.095595203 0.70698798
-0.103563 -0.096177697 0.70784301
-0.096760802 -0.096357003 0.70579797
-0.090296999 -0.096666902 0.704714
-0.085821502 -0.097925298 0.71041
-0.080450401 -0.098782197 0.71320701
-0.073468201 -0.0988153 0.71017802
-0.066296898 -0.098703101 0.70616603
-0.058961101 -0.098444298 0.70116901
-0.051724002 -0.098175697 0.69615698
-0.045275901 -0.098320097 0.69406098
-0.0388771 -0.098459698 0.691957
-0.032527499 -0.098594397 0.68984598
-0.026432799 -0.0988677 0.68870902
-0.0207655 -0.099425897 0.689529
-0.0150983 -0.099984199 0.69034898
-0.0092500998 -0.100397 0.69018501
-0.00359113 -0.100954 0.69100398
0.0019034999 -0.101659 0.69280797
0.0072582699 -0.102513 0.69560301
0.0124979 -0.10352 0.69938999
0.0179266 -0.104382 0.70219499
0.0228616 -0.10585 0.70896798
0.027772 -0.107479 0.71674699
0.0329124 -0.108966 0.72355002
0.038258299 -0.110311 0.72937202
-0.114955 -0.093687102 0.70519
-0.109674 -0.094531 0.70797402
-0.103752 -0.095114298 0.70883101
-0.0969427 -0.0952994 0.70678598
-0.090183102 -0.095479503 0.70473498
-0.085706897 -0.096729897 0.71043199
-0.080335401 -0.097582899 0.71322799
-0.073616803 -0.097759001 0.71117097
-0.066183403 -0.0975198 0.70618802
-0.0590951 -0.097408503 0.70216399
-0.051850699 -0.097150698 0.69715399
-0.045164801 -0.097161703 0.69408202
-0.0387665 -0.097306304 0.69197798
-0.032417402 -0.097446002 0.68986702
-0.026322899 -0.097722404 0.68872899
-0.020655699 -0.098280698 0.68954903
-0.0149885 -0.098838903 0.69036901
-0.00932121 -0.099397101 0.69118899
-0.00348147 -0.099810503 0.69102401
0.00184902 -0.100659 0.69381499
0.0072123101 -0.101512 0.69661099
0.0126085 -0.102367 0.69941097
0.0178978 -0.103374 0.703206
0.022973601 -0.104683 0.70898902
0.027884999 -0.1063 0.71676898
0.0330263 -0.107778 0.723571
0.038373102 -0.109114 0.72939402
-0.116344 -0.092506498 0.70600402
-0.110743 -0.093218103 0.70782399
-0.105432 -0.094062001 0.710612
-0.098602504 -0.094254099 0.70857102
-0.0915327 -0.094308898 0.70555502
-0.086775102 -0.095419101 0.71028203
-0.081679098 -0.096401803 0.71404898
-0.074947797 -0.096584097 0.71199298
-0.067753397 -0.0964913 0.70798498
-0.0603933 -0.096254997 0.70299101
-0.053371601 -0.096145399 0.69895798
-0.046663299 -0.096165203 0.695889
-0.040020801 -0.096178502 0.69281101
-0.033659 -0.096324503 0.69070202
-0.0275534 -0.096605398 0.68956602
-0.0216794 -0.0970238 0.68940598
-0.016012101 -0.097582102 0.69022602
-0.0103449 -0.098140299 0.691046
-0.0046775299 -0.098698601 0.69186598
0.000823904 -0.099400699 0.693672
0.0061842301 -0.100249 0.69646698
0.0115774 -0.101101 0.69926703
0.016862299 -0.102102 0.70306098
0.0221965 -0.103108 0.70686197
0.0270811 -0.104712 0.71463799
0.031964201 -0.106474 0.723423
0.0373035 -0.107801 0.72924399
-0.116551 -0.091438398 0.70698899
-0.111256 -0.0922767 0.70977497
-0.105623 -0.092990503 0.71159899
-0.099081397 -0.093317099 0.71052599
-0.091707699 -0.093250997 0.70654398
-0.086941101 -0.094355002 0.71127301
-0.081836402 -0.095333502 0.71504098
-0.074833199 -0.0953888 0.71201497
-0.067639597 -0.095304601 0.70800698
-0.060528301 -0.095212199 0.70398599
-0.053259499 -0.094976902 0.69897902
-0.046551902 -0.095003404 0.69590998
-0.0401331 -0.095159903 0.69380999
-0.033763699 -0.095311701 0.69170201
-0.0274434 -0.095458597 0.689587
-0.0215695 -0.095878601 0.68942702
-0.015902299 -0.096436799 0.690247
-0.010235 -0.0969951 0.69106698
-0.0045677102 -0.097553298 0.69188702
0.00076826097 -0.098396003 0.69467801
0.0061371201 -0.099242002 0.69747502
0.011688 -0.0999474 0.69928801
0.0169734 -0.100944 0.70308203
0.022175301 -0.10209 0.707874
0.0270692 -0.103682 0.71565098
0.032078099 -0.105285 0.72344398
0.037310202 -0.106752 0.73026001
-0.116757 -0.090366602 0.70797402
-0.111141 -0.091076702 0.70979601
-0.105507 -0.091788501 0.71162099
-0.0992641 -0.092246599 0.71151501
-0.091593601 -0.092060901 0.70656502
-0.086826302 -0.093157999 0.71129501
-0.081721202 -0.0941315 0.71506298
-0.074982598 -0.094324701 0.71300799
-0.067781702 -0.094249502 0.709001
-0.060415301 -0.0940338 0.70400798
-0.0533868 -0.093941703 0.69997501
-0.046440501 -0.093841501 0.69593102
-0.040022202 -0.094003104 0.69383001
-0.0336532 -0.0941597 0.69172198
-0.0273335 -0.094311602 0.68960702
-0.021658 -0.094870701 0.69042802
-0.015982499 -0.095429704 0.69125003
-0.0101252 -0.095849797 0.69108701
-0.0044578901 -0.096408099 0.69190699
0.00071293302 -0.097387999 0.69568503
0.00609033 -0.098231502 0.69848198
0.0116496 -0.098935999 0.700297
0.016943701 -0.0999282 0.70409203
0.0221544 -0.101069 0.70888501
0.027182 -0.102506 0.71567202
0.0321921 -0.104097 0.72346503
0.037317101 -0.1057 0.73127598
-0.115776 -0.0894088 0.709131
-0.110149 -0.090118401 0.71095502
-0.104506 -0.090829402 0.71278101
-0.097961098 -0.091163598 0.71170801
-0.090875298 -0.091240697 0.70869398
-0.086363196 -0.092461303 0.714396
-0.080687098 -0.093175597 0.71622699
-0.0736835 -0.093244597 0.71320099
-0.066237599 -0.093046799 0.70821899
-0.059135899 -0.092970297 0.704198
-0.051878899 -0.092753798 0.69918901
-0.045179199 -0.092792898 0.69611901
-0.038766298 -0.092959002 0.69401699
-0.032402799 -0.093120202 0.691908
-0.0262932 -0.093411602 0.690772
-0.0206095 -0.093971401 0.69159502
-0.0145492 -0.094258003 0.69045198
-0.0088819396 -0.0948162 0.69127202
-0.0033865699 -0.0955128 0.69307703
0.00179794 -0.096489102 0.69685602
0.00734261 -0.097190402 0.698668
0.0127565 -0.098034203 0.70147097
0.0180641 -0.099022597 0.70526898
0.0231595 -0.100301 0.71105498
0.0282143 -0.10173 0.71784598
0.033253498 -0.103313 0.72564399
0.038513601 -0.104762 0.73246402
-0.114791 -0.088448003 0.71028799
-0.109155 -0.089156702 0.71211302
-0.103502 -0.0898671 0.71394098
-0.096658103 -0.090080597 0.71190202
-0.090149999 -0.090414599 0.71082401
-0.085612401 -0.091629297 0.71652901
-0.079380803 -0.092089497 0.71642101
-0.0721239 -0.092036799 0.71242201
-0.0649492 -0.091975801 0.70841098
-0.057612699 -0.091777198 0.70341301
-0.050610401 -0.091699302 0.699377
-0.043917902 -0.091744401 0.69630599
-0.037510399 -0.0919149 0.69420302
-0.030941101 -0.091947801 0.69111502
-0.0250462 -0.092375003 0.69095802
-0.019362601 -0.092934899 0.69177997
-0.0133059 -0.093224302 0.69063699
-0.0078169601 -0.093918599 0.69244099
-0.00248161 -0.094751202 0.69523197
0.00304843 -0.0954495 0.69704199
0.0085948901 -0.0961494 0.69885403
0.0138669 -0.0971293 0.70264697
0.019188199 -0.098113999 0.70644599
0.024171701 -0.099526197 0.71322602
0.0292539 -0.100948 0.72002101
0.034322001 -0.102522 0.72782302
0.0397138 -0.103821 0.733652
-0.113803 -0.087484203 0.71144599
-0.108156 -0.088192202 0.71327299
-0.102493 -0.0889019 0.71510202
-0.095647097 -0.089120701 0.713063
-0.089700602 -0.089706503 0.71392298
-0.084579296 -0.090666503 0.71769398
-0.078074403 -0.091003597 0.71661502
-0.070826598 -0.0909582 0.71261501
-0.063410498 -0.090777501 0.70762801
-0.056335099 -0.0907152 0.70360303
-0.049107902 -0.090515897 0.69858903
-0.042430799 -0.090566203 0.69551599
-0.036037002 -0.090740398 0.69341201
-0.029692501 -0.090909801 0.69129997
-0.024000499 -0.091470502 0.69212401
-0.018115699 -0.0918983 0.69196498
-0.0122473 -0.092324398 0.69180399
-0.0067483098 -0.093018003 0.69361001
-0.00140121 -0.0938484 0.69640303
0.0041388399 -0.094545998 0.69821501
0.0096953204 -0.095245197 0.700028
0.014981 -0.096221402 0.70382297
0.0200451 -0.0974795 0.70960498
0.0251913 -0.098745801 0.71539801
0.030419599 -0.10002 0.72120398
0.035397802 -0.101725 0.730003
-0.118129 -0.085693203 0.70981503
-0.11281 -0.086517498 0.71260399
-0.106848 -0.087104797 0.713467
-0.101183 -0.087812997 0.71529597
-0.094342701 -0.088036202 0.71325701
-0.089240499 -0.088989303 0.71702403
-0.083542503 -0.089700803 0.71885902
-0.076503098 -0.089793503 0.71583802
-0.069272399 -0.089754798 0.71183503
-0.062123898 -0.089708 0.70782
-0.0548172 -0.089526601 0.70281798
-0.047841199 -0.089462899 0.69877797
-0.041171301 -0.089519098 0.69570303
-0.0345672 -0.089568898 0.69261903
-0.0284438 -0.089871697 0.69148499
-0.022751899 -0.090432398 0.69230902
-0.0168688 -0.090861604 0.69215
-0.0111851 -0.0914215 0.69297302
-0.0056761899 -0.092114396 0.69477999
-0.00031720399 -0.0929427 0.69757497
0.0053911102 -0.093504898 0.69840097
0.0107994 -0.094338 0.70120299
0.0159568 -0.095446803 0.70598799
0.021046299 -0.096699104 0.71177399
0.0262179 -0.097959399 0.71757197
0.031471699 -0.099227898 0.72338098
0.036589701 -0.100783 0.73119098
-0.117145 -0.084725603 0.71097201
-0.111503 -0.085429899 0.712798
-0.105844 -0.0861357 0.71462703
-0.100169 -0.086843297 0.71645802
-0.093613803 -0.087191999 0.71538699
-0.088489801 -0.088142298 0.71915799
-0.082230799 -0.088610299 0.71905297
-0.075198501 -0.0887089 0.71603101
-0.067976996 -0.088677801 0.71202701
-0.060590599 -0.088514201 0.70703602
-0.0535415 -0.0884661 0.70300698
-0.046344101 -0.088283896 0.69798899
-0.039689701 -0.088345297 0.69491202
-0.033314899 -0.088527799 0.69280499
-0.0271951 -0.0888336 0.69167101
-0.021503201 -0.089394301 0.69249398
-0.015811199 -0.089954898 0.69331801
-0.0099382801 -0.090384901 0.69315797
-0.0046004099 -0.091207802 0.69594997
0.00093508302 -0.091901504 0.697761
0.00648695 -0.092596903 0.69957399
0.011907 -0.0934278 0.70237797
0.0170798 -0.094531402 0.70716602
0.022054801 -0.095912598 0.71394497
0.027375501 -0.097030699 0.71875399
0.032531101 -0.098429598 0.725559
0.037785199 -0.099838197 0.73237801
-0.116158 -0.083754897 0.71213001
-0.110505 -0.084458597 0.71395802
-0.105139 -0.085280903 0.71675402
-0.098857202 -0.085752703 0.71665299
-0.092591703 -0.086223103 0.71654999
-0.0874542 -0.087169699 0.72032201
-0.080919102 -0.087519698 0.719248
-0.073632598 -0.087503299 0.715253
-0.066428103 -0.087478802 0.71124601
-0.059060901 -0.087323502 0.70625299
-0.052029099 -0.087282002 0.70222098
-0.045079298 -0.087232299 0.69817698
-0.038431998 -0.087299801 0.695099
-0.032062601 -0.087486699 0.69299102
-0.026150299 -0.087922201 0.692837
-0.020450201 -0.088483699 0.69366097
-0.0145626 -0.088916801 0.69350302
-0.00905002 -0.089606702 0.69531101
-0.00352095 -0.090298101 0.69712102
0.0021873601 -0.090860397 0.69794703
0.0077410298 -0.091554299 0.69976002
0.0130182 -0.092514597 0.70355302
0.018068301 -0.093746297 0.709333
0.0232004 -0.094985999 0.71512502
0.028414801 -0.0962338 0.72092903
0.0335977 -0.0976253 0.72773802
0.039089799 -0.098753698 0.73257202
-0.115167 -0.082781397 0.71328801
-0.109504 -0.083484299 0.71511799
-0.103825 -0.084188797 0.71694899
-0.097838096 -0.084778599 0.71781498
-0.092134602 -0.0854856 0.71964997
-0.086414903 -0.086194098 0.721488
-0.079607397 -0.086429201 0.71944302
-0.072329901 -0.086420298 0.71544701
-0.064883001 -0.086282901 0.71046501
-0.0575349 -0.086135797 0.70546901
-0.0505202 -0.086100899 0.70143402
-0.043587599 -0.086057998 0.69738799
-0.0369558 -0.086130597 0.69430798
-0.0308103 -0.0864456 0.69317698
-0.024899799 -0.086882703 0.69302303
-0.0191998 -0.087444201 0.693847
-0.0134996 -0.088005699 0.69467199
-0.0079770098 -0.088694803 0.69648099
-0.0024379599 -0.089385502 0.69829202
0.00327858 -0.089948602 0.69911897
0.0088422596 -0.090641901 0.70093399
0.0141331 -0.091598503 0.70472902
0.019063899 -0.092955202 0.71150202
0.0242215 -0.094189003 0.71729797
0.029581301 -0.095297597 0.72211301
0.034783199 -0.096680902 0.72892398
0.040187199 -0.097939096 0.73475599
-0.112976 -0.081922501 0.71461999
-0.107302 -0.082624897 0.71645099
-0.101909 -0.083443098 0.71925098
-0.095904902 -0.084034503 0.72012001
-0.090181798 -0.084741801 0.72195798
-0.083896898 -0.085217401 0.72185701
-0.076570898 -0.085221604 0.71786797
-0.069327101 -0.085217804 0.713866
-0.061917301 -0.085086703 0.70887899
-0.0546063 -0.084945999 0.70387799
-0.047625199 -0.084916197 0.69983798
-0.040949699 -0.0849998 0.69676399
-0.034554899 -0.085199296 0.69466001
-0.028416401 -0.085516997 0.693528
-0.022509299 -0.085955396 0.69337302
-0.0168093 -0.086516798 0.69419801
-0.0112914 -0.087203898 0.696006
-0.0057570999 -0.087892503 0.69781703
-4.0568899e-05 -0.088455603 0.69864398
0.0055183498 -0.089146599 0.70045799
0.0109443 -0.089968003 0.70326298
0.0161207 -0.091051899 0.70805103
0.0210968 -0.092403002 0.71483099
0.0264211 -0.093501396 0.71964002
0.031694502 -0.094738297 0.72545302
0.037050001 -0.0959832 0.73127699
-0.116448 -0.080360897 0.71412301
-0.110779 -0.081061102 0.71595299
-0.105395 -0.081874996 0.71875203
-0.099684499 -0.082579397 0.72058803
-0.093958199 -0.083285198 0.722426
-0.087937698 -0.083878301 0.723297
-0.081109799 -0.0841254 0.72125602
-0.073809303 -0.084135503 0.71726203
-0.0663381 -0.0840206 0.71228403
-0.058720998 -0.083778203 0.70631701
-0.051927801 -0.083880201 0.70326
-0.0449722 -0.0838563 0.69921702
-0.038318601 -0.083944403 0.69613999
-0.031942502 -0.084146999 0.69403303
-0.026022499 -0.084588297 0.69388002
-0.020314099 -0.085150599 0.69470501
-0.0146057 -0.085712902 0.69553101
-0.0088974098 -0.086275198 0.69635701
-0.00353028 -0.087087497 0.69915402
0.00219444 -0.087651402 0.69998199
0.00776501 -0.088341899 0.70179802
0.013206 -0.089161597 0.70460498
0.0181289 -0.090497397 0.71137601
0.0232799 -0.091713801 0.71717101
0.028634399 -0.0928085 0.72198498
0.033941399 -0.094040297 0.72780299
0.039225701 -0.095411599 0.73462701
-0.114255 -0.0794973 0.715455
-0.108881 -0.080306903 0.718252
-0.103175 -0.081009097 0.72008801
-0.097453699 -0.081712797 0.72192597
-0.0917155 -0.082418099 0.72376603
-0.085413001 -0.082898803 0.72366798
-0.0783296 -0.083036102 0.720653
-0.071054503 -0.083052002 0.71665603
-0.0631136 -0.082713097 0.70972598
-0.0557863 -0.082594097 0.70472699
-0.0490233 -0.082699701 0.70166498
-0.042326 -0.082798898 0.69859499
-0.035694402 -0.082891598 0.69551498
-0.029336801 -0.083097398 0.69340497
-0.023628499 -0.083659701 0.69423097
-0.017920099 -0.084221996 0.69505697
-0.0122118 -0.084784299 0.69588298
-0.0068542301 -0.0855923 0.69867802
-0.00129665 -0.086279899 0.70049202
0.0042773602 -0.0869691 0.702308
0.0100185 -0.087534703 0.70313901
0.0151896 -0.088604502 0.70792598
0.020157799 -0.089934699 0.71470499
0.0254767 -0.091019198 0.71951401
0.0307435 -0.092238702 0.72532499
0.035982799 -0.093595497 0.73214298
0.041523501 -0.094701797 0.73698401
-0.113568 -0.078620501 0.71757901
-0.107869 -0.079320297 0.719414
-0.102154 -0.080021702 0.72125101
-0.096421599 -0.080724798 0.72308999
-0.091233999 -0.081651203 0.72687
-0.0840922 -0.081800804 0.72386402
-0.076752201 -0.081831597 0.71987599
-0.069494203 -0.081854299 0.715877
-0.061575901 -0.081526503 0.70894301
-0.054267801 -0.081415601 0.70394099
-0.047751199 -0.081642099 0.70185399
-0.0410611 -0.081747398 0.69878298
-0.034436699 -0.081845999 0.69570202
-0.0280845 -0.082056403 0.693591
-0.0223762 -0.082618602 0.694417
-0.016667901 -0.083180897 0.695243
-0.0111414 -0.083863802 0.697052
-0.0057719299 -0.084669597 0.69984901
-0.00020431999 -0.085356504 0.70166397
0.0053797201 -0.086044997 0.70348197
0.0111291 -0.086611301 0.70431399
0.016174899 -0.087800696 0.71009398
0.021302899 -0.088998102 0.71588498
0.0266372 -0.0900774 0.72069597
0.0319212 -0.091290198 0.726511
0.037071601 -0.092766598 0.73432499
-0.118255 -0.076934002 0.71690601
-0.112562 -0.0776316 0.71873999
-0.106853 -0.078330703 0.72057599
-0.101128 -0.0790314 0.72241402
-0.095959403 -0.079950899 0.726192
-0.090184502 -0.080656499 0.728037
-0.082771398 -0.080702797 0.72406
-0.075440399 -0.080741003 0.72007102
-0.067683697 -0.080547601 0.71412402
-0.0597963 -0.0802304 0.70718598
-0.052990202 -0.080353603 0.70413101
-0.0462499 -0.080470398 0.70106697
-0.039575201 -0.080580801 0.69799298
-0.033179101 -0.080800503 0.69588798
-0.026832299 -0.081015296 0.69377702
-0.021124 -0.081577599 0.69460303
-0.0156038 -0.082258098 0.69641101
-0.0100672 -0.082940303 0.69822198
-0.0046860599 -0.0837439 0.70102102
0.00089161098 -0.084430099 0.702838
0.006641 -0.084996402 0.70366901
0.0122433 -0.085685097 0.70548999
0.017167401 -0.086990803 0.71226197
0.022451401 -0.088058501 0.71706599
0.027801201 -0.0891326 0.72188002
0.032988101 -0.0904641 0.72869003
0.0382737 -0.091805503 0.73551399
-0.117255 -0.075942799 0.71806598
-0.111553 -0.0766396 0.71990103
-0.106135 -0.077443503 0.72270501
-0.100684 -0.078250602 0.72551298
-0.095201299 -0.079061002 0.72832602
-0.089131601 -0.079658903 0.729204
-0.081450701 -0.079604797 0.72425598
-0.073868297 -0.079540998 0.71929401
-0.066132396 -0.079357304 0.71334398
-0.058267701 -0.079051197 0.706402
-0.051477 -0.0791796 0.703345
-0.044979598 -0.079414397 0.70125502
-0.0383121 -0.079530597 0.69818002
-0.031921402 -0.0797548 0.69607502
-0.02558 -0.079974197 0.69396299
-0.0200663 -0.080652401 0.69577098
-0.0145361 -0.081332199 0.69758099
-0.0089895399 -0.082013696 0.69939297
-0.00342656 -0.082696803 0.701208
0.00199115 -0.083500601 0.70401102
0.0077487598 -0.084067799 0.70484501
0.0132157 -0.084876597 0.70765501
0.018304201 -0.086053297 0.71344101
0.0236037 -0.087115802 0.71824801
0.0288481 -0.088307902 0.72405601
0.0340623 -0.089632198 0.73087001
0.039479401 -0.090841301 0.73670298
-0.116568 -0.075051002 0.72018999
-0.11054 -0.075644799 0.721062
-0.10511 -0.076446503 0.72386801
-0.099939398 -0.0773561 0.72764599
-0.094435997 -0.078165002 0.73046201
-0.087800004 -0.078551903 0.72940201
-0.080129899 -0.078506798 0.72445202
-0.072558299 -0.078451999 0.71948802
-0.064584799 -0.078170002 0.71256298
-0.056742702 -0.077875003 0.70561802
-0.050201301 -0.078119002 0.70353401
-0.0437093 -0.0783583 0.70144397
-0.037048999 -0.078480601 0.69836801
-0.0304545 -0.078596503 0.69528198
-0.0243276 -0.078933097 0.69414902
-0.0188122 -0.079609796 0.69595701
-0.0132802 -0.080288202 0.69776702
-0.0077317799 -0.080968097 0.69958001
-0.0023352001 -0.081766598 0.70238
0.0032542399 -0.082450598 0.70419902
0.0090118498 -0.083017699 0.70503199
0.0143389 -0.083942801 0.70883298
0.0194446 -0.0851129 0.71462101
0.024759499 -0.086170197 0.71943003
0.0299023 -0.087477297 0.72623301
0.0351438 -0.088794202 0.733051
0.0406886 -0.089874201 0.73789299
-0.11556 -0.0740522 0.72135103
-0.109523 -0.074646801 0.72222501
-0.10438 -0.075548798 0.725999
-0.098897599 -0.076352298 0.72881198
-0.090944402 -0.077399299 0.73198199
-0.083500803 -0.0774737 0.72801
-0.075616002 -0.077327996 0.72208101
-0.067592897 -0.077064298 0.71516198
-0.059700999 -0.076787598 0.708224
-0.052888699 -0.076931603 0.70516998
-0.046370801 -0.077178501 0.70308399
-0.039681599 -0.077310301 0.70001203
-0.033270501 -0.077546597 0.697909
-0.026908601 -0.0777779 0.69580001
-0.020988001 -0.078229398 0.695647
-0.0154592 -0.078905702 0.69745702
-0.0099139297 -0.079583697 0.699269
-0.0045235199 -0.080378197 0.70206898
0.00106277 -0.081060298 0.70388699
0.00682037 -0.081627399 0.70472002
0.0122847 -0.0824292 0.70753002
0.017366599 -0.083588503 0.71331501
0.022660701 -0.084637001 0.71812099
0.0278986 -0.085811801 0.72392899
0.0331048 -0.087115198 0.73074102
0.038409699 -0.088428304 0.73756897
-0.118176 -0.072693199 0.72198802
-0.112439 -0.073388398 0.72382802
-0.106686 -0.074085101 0.72566998
-0.101211 -0.074884601 0.72848201
-0.094765797 -0.075909697 0.73244399
-0.088388599 -0.076407798 0.73235703
-0.080429398 -0.076281302 0.726439
-0.072585203 -0.076143399 0.72050399
-0.064605899 -0.075888701 0.713579
-0.056758199 -0.075621098 0.706635
-0.0502095 -0.075875901 0.70455301
-0.043710198 -0.076125897 0.70246297
-0.037042901 -0.076262303 0.69938803
-0.0306505 -0.076501697 0.69728303
-0.0245078 -0.0768466 0.69615197
-0.0187831 -0.077410497 0.69698101
-0.0132426 -0.078086399 0.69879198
-0.0076856799 -0.078763798 0.70060599
-0.00211237 -0.079442903 0.70242202
0.0033177501 -0.080238 0.70522797
0.0090835597 -0.080805898 0.70606202
0.0142766 -0.081837803 0.71085298
0.019535299 -0.082876101 0.71565402
0.0248597 -0.083920904 0.72046399
0.0300126 -0.085208997 0.72726899
0.035153899 -0.086626001 0.73508298
0.040716399 -0.087694198 0.73992699
-0.116268 -0.071904801 0.724289
-0.110207 -0.072501801 0.72516602
-0.10474 -0.073297203 0.72797698
-0.099239998 -0.074095704 0.73079199
-0.093989 -0.0749982 0.73458201
-0.086778797 -0.075194798 0.73158503
-0.078840397 -0.075077899 0.72566402
-0.0707606 -0.074846499 0.71875399
-0.062812299 -0.074602298 0.711824
-0.055475201 -0.0745546 0.70682597
-0.048700299 -0.074708298 0.70376599
-0.042438101 -0.075068302 0.70265198
-0.035778102 -0.075210698 0.69957602
-0.029391 -0.0754546 0.69747102
-0.023251999 -0.075802602 0.69633901
-0.0175272 -0.076366499 0.69716698
-0.0119849 -0.077040903 0.69897902
-0.0066005299 -0.077827998 0.70177799
-0.00101713 -0.078506403 0.703596
0.0045826398 -0.079186402 0.70541602
0.0101988 -0.079867996 0.70723802
0.0154073 -0.080894701 0.71203202
0.0206814 -0.081927799 0.71683502
0.025896201 -0.083083503 0.72263902
0.0310764 -0.084364198 0.72944802
0.036355201 -0.085654601 0.73627102
0.041933201 -0.086717702 0.74111801
-0.11525 -0.070895299 0.72545099
-0.10918 -0.071493201 0.72632903
-0.103406 -0.072188698 0.72817498
-0.097256102 -0.073301502 0.73310399
-0.089923099 -0.074023798 0.73416501
-0.082206003 -0.0740235 0.729222
-0.0740683 -0.0738113 0.72232002
-0.0660621 -0.073586002 0.71539903
-0.0584304 -0.073450699 0.70943302
-0.051383302 -0.073511198 0.70540297
-0.0448718 -0.073772497 0.70331502
-0.038409598 -0.074028797 0.70121998
-0.031786401 -0.0741743 0.69813901
-0.025632899 -0.074526899 0.69700903
-0.019706201 -0.074983999 0.69685698
-0.0139814 -0.075547896 0.697685
-0.0086114202 -0.076330401 0.70048201
-0.00320862 -0.077115998 0.70328301
0.0023880401 -0.077794097 0.70510298
0.0081538605 -0.078362003 0.70593703
0.0133416 -0.079379998 0.71072799
0.0185949 -0.080404297 0.71552801
0.023914101 -0.081435204 0.72033697
0.029059101 -0.082702398 0.72714102
0.034191001 -0.084095001 0.73495299
0.0397483 -0.0851494 0.739797
-0.117561 -0.069429599 0.72512197
-0.111491 -0.070027404 0.72600001
-0.10572 -0.070721 0.72784501
-0.100223 -0.071512498 0.73066002
-0.0946934 -0.072307304 0.73347998
-0.088308401 -0.072811201 0.73339403
-0.080078498 -0.072621502 0.72650498
-0.072237603 -0.072518401 0.72057003
-0.0642621 -0.072303601 0.71364403
-0.056900699 -0.072278403 0.70864898
-0.0501041 -0.072447702 0.70559299
-0.043598 -0.072713397 0.70350403
-0.0371411 -0.072974302 0.70140898
-0.0307335 -0.073230296 0.69930601
-0.0243752 -0.073481403 0.69719601
-0.018450299 -0.073940001 0.697043
-0.0129094 -0.0746108 0.69885498
-0.0075275302 -0.075391099 0.701653
-0.0019455201 -0.076066002 0.703471
0.00365294 -0.0767425 0.70529097
0.00926782 -0.0774206 0.70711303
0.0144709 -0.078433298 0.71190602
0.019739799 -0.079452597 0.716708
0.024948001 -0.080590799 0.72251201
0.030002199 -0.081964098 0.730313
0.0352812 -0.083234496 0.73713601
0.040963799 -0.084169298 0.74098802
-0.115327 -0.068534799 0.72645998
-0.109248 -0.069133602 0.72733998
-0.103466 -0.069826499 0.729186
-0.097953796 -0.070616201 0.73200399
-0.092130698 -0.071313202 0.73385602
-0.084937103 -0.071528301 0.73085701
-0.076759197 -0.071346797 0.723961
-0.068967097 -0.071250699 0.718018
-0.061535999 -0.071242496 0.71303397
-0.054203499 -0.071224399 0.70803499
-0.047428802 -0.071398199 0.70497501
-0.040941201 -0.071667098 0.70288402
-0.034503002 -0.071931198 0.70078498
-0.028318901 -0.072293498 0.69966
-0.022167699 -0.072652698 0.69853002
-0.016238 -0.073113501 0.69837803
-0.0106854 -0.0737838 0.70019102
-0.00511637 -0.074455798 0.702007
0.00030517601 -0.075236499 0.70481098
0.0062267198 -0.075696401 0.70465797
0.0115418 -0.076590098 0.70845699
0.016627699 -0.077707998 0.71424299
0.021926699 -0.078723498 0.71904898
0.0269229 -0.080079302 0.72684199
0.0321486 -0.081334397 0.73365802
0.037579399 -0.082486197 0.73949403
-0.120389 -0.066918001 0.72674298
-0.114304 -0.067517497 0.72762299
-0.108217 -0.068117 0.728504
-0.102131 -0.068716601 0.72938502
-0.096615501 -0.0695033 0.73220199
-0.090512998 -0.070104398 0.73308498
-0.083066002 -0.070229404 0.72911298
-0.075179599 -0.070154302 0.72318399
-0.067408301 -0.070067897 0.71723902
-0.059996199 -0.070067704 0.71225101
-0.052918799 -0.070156403 0.70822501
-0.046151299 -0.0703362 0.70516503
-0.039669201 -0.070609599 0.70307302
-0.033236202 -0.070878103 0.70097297
-0.027055901 -0.071243502 0.699848
-0.020908199 -0.071605697 0.698717
-0.0149803 -0.072067901 0.69856501
-0.0096044298 -0.072840802 0.70136303
-0.0040254002 -0.0735121 0.70318002
0.0015700801 -0.074184999 0.70499903
0.0073358901 -0.074752897 0.70583397
0.0126646 -0.075643003 0.70963502
0.017767699 -0.076754101 0.71542299
0.022952899 -0.077873401 0.721223
0.028099099 -0.079110503 0.72802699
0.033231098 -0.080467999 0.73584002
0.0386873 -0.081614003 0.74167901
-0.119055 -0.065807998 0.72694099
-0.113276 -0.066497199 0.728787
-0.107182 -0.0670975 0.72966897
-0.100796 -0.067606501 0.72958302
-0.095276803 -0.068390198 0.73240101
-0.088898897 -0.068898499 0.73231399
-0.081202 -0.068936497 0.727368
-0.0733447 -0.068870202 0.72143501
-0.066103801 -0.068983302 0.71743298
-0.058702599 -0.068992198 0.71244299
-0.051399902 -0.068991303 0.70744002
-0.044647802 -0.069176301 0.704377
-0.038396999 -0.069551997 0.70326197
-0.032179199 -0.069924504 0.70214099
-0.0259941 -0.070293598 0.70101601
-0.019648699 -0.0705586 0.69890398
-0.0139076 -0.071124204 0.69973499
-0.0083432104 -0.071792297 0.70155001
-0.00276234 -0.072462 0.70336699
0.0028349699 -0.073133402 0.70518702
0.0084486799 -0.073806398 0.70700902
0.0136471 -0.074798599 0.71180201
0.0189113 -0.0757972 0.71660298
0.0239862 -0.0770173 0.72339702
0.029040501 -0.078355402 0.73119801
0.0344318 -0.079486601 0.737028
0.039905202 -0.080625899 0.74286997
-0.118034 -0.064785399 0.728104
-0.11194 -0.065385699 0.72898602
-0.105546 -0.065897003 0.72890103
-0.0994609 -0.066496499 0.72978097
-0.093656301 -0.067186698 0.73163098
-0.087014899 -0.067604199 0.73057199
-0.079345196 -0.067649603 0.725622
-0.071774103 -0.067685097 0.72065699
-0.0645504 -0.067805 0.71665198
-0.057168201 -0.067822002 0.71166003
-0.0501169 -0.067924902 0.70763099
-0.043372098 -0.068115801 0.70456702
-0.037124898 -0.068494402 0.70345002
-0.0309106 -0.068869904 0.70232999
-0.0247292 -0.069242001 0.701204
-0.0183893 -0.0695116 0.69909102
-0.0126481 -0.070077099 0.69992203
-0.0072568399 -0.070844799 0.70272201
-0.0016659599 -0.071513899 0.70454103
0.0040998599 -0.072081797 0.70537502
0.0095650703 -0.072856903 0.70818597
0.0147789 -0.0738438 0.71297997
0.0200585 -0.074837402 0.71778399
0.0250268 -0.076155201 0.725573
0.0301101 -0.077484399 0.73337799
0.035526801 -0.078609802 0.73921198
0.041126698 -0.079634801 0.74406201
-0.115478 -0.063794002 0.72847903
-0.109384 -0.064394303 0.729361
-0.102994 -0.064906903 0.72927499
-0.093538202 -0.065955102 0.73165298
-0.086623803 -0.066286102 0.72962397
-0.078963302 -0.0663407 0.72467202
-0.071658202 -0.066476896 0.72067899
-0.064435303 -0.066604897 0.71667397
-0.057294499 -0.066724896 0.71265697
-0.0502358 -0.066836901 0.708628
-0.043483399 -0.067035303 0.70556498
-0.037228402 -0.067418098 0.70445001
-0.031006301 -0.067797601 0.70333099
-0.0248169 -0.0681739 0.70220602
-0.0184693 -0.068449199 0.700095
-0.0127199 -0.0690156 0.70092601
-0.0073200702 -0.0697807 0.70372802
-0.00155423 -0.070348702 0.70456201
0.0040532299 -0.071017697 0.70638299
0.0096771196 -0.071688399 0.70820701
0.0148916 -0.072668701 0.71300101
0.0200381 -0.073759101 0.71879601
0.025015701 -0.075066201 0.72658598
0.030225599 -0.076279402 0.73339999
0.035643101 -0.0773964 0.73923397
0.041042 -0.078628398 0.74607497
-0.11445 -0.062766999 0.72964299
-0.108047 -0.063282803 0.729559
-0.101366 -0.063710801 0.72850603
-0.0907043 -0.064876102 0.731058
-0.083268598 -0.065033503 0.72708398
-0.075915098 -0.065182798 0.72309798
-0.068897203 -0.065414101 0.72007298
-0.0616997 -0.0655481 0.71606499
-0.054347198 -0.065582298 0.71106899
-0.047551099 -0.065791696 0.70801198
-0.040820699 -0.065994598 0.70494598
-0.0345807 -0.066379301 0.70382798
-0.028782099 -0.0669505 0.70466697
-0.022395501 -0.067234598 0.70256102
-0.0160581 -0.067513898 0.70044798
-0.0104883 -0.068177499 0.70226401
-0.0050733001 -0.0689409 0.70506799
0.00070069998 -0.069509603 0.70590299
0.0063198102 -0.070178203 0.707726
0.0118087 -0.070948802 0.71054
0.0169149 -0.072026797 0.71632898
0.0221032 -0.073112898 0.72213
0.0271296 -0.074413002 0.729927
0.032384802 -0.075620703 0.73674703
0.037738599 -0.076838098 0.74358201
-0.115553 -0.0614135 0.72948802
-0.101249 -0.062482599 0.72852802
-0.088816397 -0.063593797 0.72931701
-0.0816743 -0.0638441 0.72631001
-0.074337997 -0.0640001 0.72232097
-0.067587197 -0.064325102 0.72026801
-0.060398702 -0.064466603 0.71625799
-0.053057201 -0.064509697 0.71126002
-0.046041101 -0.064634196 0.70722502
-0.039763801 -0.065025903 0.70611298
-0.033519201 -0.065414399 0.704997
-0.0275099 -0.065892898 0.70485598
-0.021128699 -0.0661816 0.70275003
-0.0149828 -0.066560298 0.70161903
-0.0094029503 -0.067223199 0.70343602
-0.00380667 -0.067887902 0.70525599
0.00180607 -0.068553999 0.70707798
0.0074351998 -0.069221899 0.708902
0.012791 -0.0700894 0.71270698
0.0180593 -0.071061604 0.71750998
0.0231364 -0.072241798 0.72430402
0.028191799 -0.073532999 0.73210597
0.033474199 -0.074733302 0.73892999
0.038855299 -0.075943299 0.74576902
-0.0901905 -0.062332001 0.730133
-0.083034299 -0.062590301 0.72712803
-0.075682402 -0.0627563 0.72314203
-0.068918899 -0.063087501 0.72109002
-0.061959799 -0.063326403 0.71805698
-0.054592799 -0.063382201 0.713063
-0.047552999 -0.063517399 0.70903099
-0.041035801 -0.063824303 0.70694399
-0.034780201 -0.064217202 0.70582902
-0.028761201 -0.064698502 0.70569003
-0.022562999 -0.065085702 0.70456702
-0.0162101 -0.065376498 0.702456
-0.0104444 -0.0659445 0.70328999
-0.00484952 -0.0666072 0.70511001
0.00076167099 -0.067271598 0.70693201
0.0063893199 -0.067937598 0.70875603
0.0117406 -0.068799697 0.71256
0.017003 -0.069764704 0.71736199
0.022201199 -0.070835002 0.72316402
0.027238 -0.072112702 0.73096299
0.032389801 -0.073401801 0.738778
0.037761901 -0.074600801 0.74561602
-0.087092899 -0.061177298 0.72856599
-0.079966798 -0.061439399 0.72555703
-0.073164299 -0.061779499 0.72351098
-0.066161498 -0.062029399 0.72048402
-0.0592243 -0.062272899 0.717448
-0.051886301 -0.0623358 0.71244901
-0.0448719 -0.062476899 0.70841402
-0.0383734 -0.062787101 0.70632398
-0.032341499 -0.063271202 0.70618701
-0.0263259 -0.063753799 0.706047
-0.019942399 -0.064052701 0.70394099
-0.0137921 -0.0644385 0.702811
-0.0082020704 -0.065099202 0.70463002
-0.00259562 -0.065761402 0.706451
0.00302724 -0.066425301 0.70827401
0.0085153999 -0.067185797 0.711088
0.0138935 -0.068045497 0.71489698
0.0191861 -0.069006696 0.71970201
0.0242914 -0.070169501 0.72650099
0.0292587 -0.071538702 0.7353
0.0345775 -0.072722398 0.74212998
0.039994899 -0.073915802 0.74897403
-0.083069302 -0.060228899 0.72814298
-0.075971797 -0.060494799 0.72513002
-0.069192797 -0.060837701 0.72308099
-0.061973799 -0.061007299 0.71907502
-0.054837 -0.0611687 0.71505803
-0.047782399 -0.061322201 0.71102798
-0.0410299 -0.0615541 0.70796502
-0.0347666 -0.061954498 0.70685101
-0.0287397 -0.062439799 0.70671302
-0.022534 -0.062834501 0.70559102
-0.016173899 -0.063136101 0.70348102
-0.0103998 -0.0637049 0.70431602
-0.0047965101 -0.064365201 0.706137
0.00082327198 -0.065026999 0.70796001
0.0064594601 -0.065690398 0.709786
0.0118199 -0.0665434 0.71359098
0.0170918 -0.067495897 0.71839398
0.0222998 -0.0685504 0.72419798
0.027225601 -0.069902003 0.73299098
0.032509301 -0.071072303 0.73981601
0.037786499 -0.072350197 0.74764901
-0.085918099 -0.058926702 0.729756
-0.079319999 -0.059363399 0.72869098
-0.071986899 -0.059552599 0.724702
-0.064983599 -0.059815999 0.72167498
-0.057806499 -0.059989799 0.71766299
-0.050480299 -0.060071699 0.71266299
-0.043698899 -0.060313199 0.70960402
-0.037197899 -0.0606337 0.70751399
-0.0309531 -0.061035499 0.70639801
-0.0249395 -0.0615214 0.706258
-0.018561799 -0.0618296 0.70415002
-0.0127796 -0.062399201 0.70498699
-0.0069972901 -0.062968798 0.70582402
-0.00138071 -0.063628703 0.70764601
0.0040949401 -0.064381301 0.71045899
0.0096034501 -0.065137103 0.71327603
0.0150038 -0.065989003 0.71708697
0.020188 -0.067032799 0.72288698
0.0252051 -0.068273298 0.73068398
0.0304536 -0.069430098 0.73750299
0.035692502 -0.070692599 0.74533099
0.0413462 -0.071675897 0.75019002
-0.080678999 -0.058099698 0.729509
-0.073587701 -0.058378398 0.72649503
-0.066312902 -0.058570199 0.722498
-0.059361201 -0.058835302 0.71946299
-0.052009601 -0.0589297 0.71446699
-0.0449812 -0.059097201 0.71043301
-0.038467601 -0.059424002 0.70834601
-0.032211602 -0.059830401 0.70723099
-0.026188301 -0.060318701 0.70709199
-0.019989699 -0.060719401 0.70596898
-0.013824 -0.0611169 0.70484102
-0.0080417702 -0.0616864 0.70567697
-0.00259366 -0.0624329 0.70848602
0.00304609 -0.063093401 0.71031201
0.0085516199 -0.063845702 0.71312797
0.0139475 -0.064691998 0.71693897
0.019258499 -0.065634899 0.72174799
0.024257099 -0.066862002 0.729541
0.0294885 -0.068007 0.736359
0.034599099 -0.069349997 0.74517798
0.040145401 -0.0704211 0.75103098
-0.082041003 -0.056832299 0.73032802
-0.0751945 -0.0571969 0.72828799
-0.0678958 -0.0573995 0.72429401
-0.060921699 -0.057673302 0.72126299
-0.053544801 -0.057780299 0.71627003
-0.046492599 -0.057958599 0.71223998
-0.039740302 -0.0582106 0.709176
-0.033473 -0.058621399 0.70806301
-0.0272386 -0.059029002 0.706945
-0.0210371 -0.0594333 0.70582199
-0.0148683 -0.059834499 0.70469499
-0.0092629204 -0.0604899 0.70651603
-0.0036410501 -0.0611469 0.70833898
0.00183687 -0.061893001 0.71115202
0.0074998098 -0.062554203 0.71298099
0.0128913 -0.063395001 0.71679097
0.0181963 -0.064330697 0.72159898
0.0233119 -0.065454297 0.72839999
0.028526301 -0.0665875 0.73521399
0.033728 -0.067822903 0.74303699
0.039044701 -0.069069497 0.75087702
-0.083406001 -0.0555613 0.73114502
-0.076807201 -0.056008101 0.73008001
-0.069484599 -0.056221399 0.726089
-0.0622443 -0.0564266 0.72208601
-0.055086002 -0.056623701 0.718072
-0.047782298 -0.0567335 0.71306801
-0.041015901 -0.056993701 0.71000701
-0.034737501 -0.057409 0.70889503
-0.028491899 -0.057820901 0.70777899
-0.0224739 -0.058312099 0.70763898
-0.0160993 -0.058635298 0.705531
-0.0103088 -0.0592057 0.70636898
-0.0046884599 -0.0598609 0.70819199
0.00078654097 -0.060603298 0.71100497
0.00644799 -0.0612626 0.712834
0.011835 -0.062098 0.71664298
0.0171341 -0.063026503 0.72144997
0.0222409 -0.064139098 0.72825003
0.027446199 -0.065261401 0.73506302
0.0327501 -0.066393502 0.74189103
0.038048301 -0.067626603 0.74972802
-0.084773801 -0.0542867 0.73196298
-0.078425802 -0.054811999 0.73187101
-0.0708258 -0.0549611 0.72691
-0.063569702 -0.055176198 0.72290999
-0.0563959 -0.055383299 0.71889699
-0.049304102 -0.055582199 0.71487302
-0.042294599 -0.055773102 0.71083701
-0.036004901 -0.0561928 0.70972699
-0.029748101 -0.056609299 0.70861202
-0.023524201 -0.0570224 0.70749199
-0.0173331 -0.057432398 0.70636803
-0.0115345 -0.058003601 0.70720702
-0.0059072999 -0.058657799 0.70903099
-0.000263803 -0.0593137 0.71085799
0.0052410401 -0.0600558 0.71367401
0.0107787 -0.0608011 0.71649599
0.016210601 -0.0616359 0.720312
0.021300299 -0.062736899 0.727108
0.0264885 -0.0638474 0.73391998
0.031775299 -0.064967804 0.74074501
0.037054799 -0.066187203 0.74857903
0.0428399 -0.067056902 0.752446
-0.079787001 -0.0535363 0.73268902
-0.072680198 -0.053843401 0.72967702
-0.0648982 -0.053922299 0.72373301
-0.057947502 -0.0542139 0.720698
-0.0506013 -0.054347999 0.71569997
-0.043798398 -0.054625198 0.71264398
-0.037275299 -0.054972898 0.710558
-0.031007299 -0.055393901 0.709445
-0.024772201 -0.055811599 0.708327
-0.01857 -0.056226 0.70720398
-0.0125818 -0.056717601 0.70705998
-0.0069562201 -0.05737 0.708884
-0.00131414 -0.058024 0.710711
0.0041877502 -0.058762401 0.71352702
0.0097224796 -0.0595042 0.71634799
0.0151499 -0.060333502 0.72016299
0.020362601 -0.061338201 0.725968
0.02541 -0.062523097 0.733769
0.0308035 -0.0635456 0.73959899
0.036064301 -0.064751603 0.74743098
0.041737601 -0.065703399 0.75229198
-0.080886297 -0.052186601 0.732535
-0.074030198 -0.052572198 0.730497
-0.066478103 -0.052736599 0.72552902
-0.059264701 -0.0529643 0.72152197
-0.0521334 -0.053183999 0.71750402
-0.045084398 -0.053395402 0.71347302
-0.038332999 -0.053674199 0.71041
-0.0322695 -0.054174799 0.71027702
-0.0260232 -0.054597002 0.70916098
-0.019809799 -0.055015899 0.70803899
-0.013812 -0.055510201 0.70789701
-0.0080050398 -0.0560822 0.70873702
-0.00253081 -0.056814499 0.71155
0.00297634 -0.057550199 0.71436602
0.0086662099 -0.058207199 0.71619999
0.0140892 -0.059031099 0.72001499
0.0192945 -0.060026702 0.72581798
0.0244567 -0.061114602 0.73262602
0.0298345 -0.062127199 0.73845398
0.035076801 -0.063319601 0.74628299
0.0407359 -0.064263403 0.75114202
-0.081033103 -0.051025499 0.73352897
-0.073912799 -0.0513472 0.730519
-0.066609897 -0.0515921 0.72652501
-0.059149001 -0.051757701 0.72154403
-0.052018501 -0.051985499 0.71752501
-0.045193899 -0.052278198 0.71447301
-0.0384349 -0.052564502 0.71140999
-0.032156199 -0.052993201 0.710298
-0.025910201 -0.053418498 0.70918202
-0.0196971 -0.053840801 0.70806098
-0.0136994 -0.054336701 0.70791799
-0.0080669196 -0.054986399 0.70974302
-0.00241796 -0.055637699 0.71157098
0.0029315699 -0.056449398 0.71537501
0.0086298101 -0.057105601 0.71720999
0.014203 -0.0578444 0.72003597
0.0194091 -0.058831599 0.72583997
0.024572199 -0.059909701 0.732647
0.029834 -0.0609973 0.73946899
0.0350856 -0.062178802 0.74730003
0.040854 -0.0630318 0.75116402
-0.081179596 -0.0498611 0.734523
-0.074051604 -0.0501903 0.73151398
-0.066493198 -0.050375499 0.726547
-0.059273198 -0.050620601 0.72254097
-0.0521354 -0.0508576 0.71852398
-0.0450796 -0.0510865 0.71449399
-0.038321301 -0.051379401 0.71143103
-0.032249901 -0.0518842 0.71130002
-0.0259961 -0.0523137 0.71018398
-0.019774999 -0.052740101 0.70906401
-0.0137693 -0.053238399 0.70892298
-0.0079542296 -0.053811301 0.70976502
-0.0024711001 -0.054537799 0.712578
0.0030449 -0.055267598 0.71539599
0.0087432899 -0.055922098 0.71723098
0.0141754 -0.056736901 0.72104698
0.019390499 -0.057716701 0.726852
0.024562901 -0.058785599 0.733661
0.029833799 -0.0598641 0.740484
0.0352032 -0.060952298 0.74732202
0.040972099 -0.061800301 0.75118703
-0.081061304 -0.048627801 0.73454601
-0.073934004 -0.048963699 0.73153597
-0.066624403 -0.049226101 0.727543
-0.059157301 -0.049412299 0.72256303
-0.0520203 -0.049657598 0.71854502
-0.044965401 -0.049894799 0.71451598
-0.038422801 -0.050264601 0.71243203
-0.032136399 -0.050700799 0.711321
-0.0258829 -0.051133599 0.71020597
-0.0196622 -0.0515633 0.709086
-0.0136566 -0.052063301 0.70894402
-0.0078415498 -0.052636102 0.709786
-0.0023580999 -0.0533594 0.71259898
0.0030006 -0.054161899 0.71640497
0.0087073604 -0.054815602 0.71824098
0.0142894 -0.0555485 0.72106898
0.0193724 -0.056598399 0.72786498
0.024553901 -0.057658199 0.73467499
0.0298339 -0.058727499 0.74149901
0.035212498 -0.0598066 0.74833798
0.040990099 -0.0606503 0.752204
-0.082695298 -0.047401801 0.73633403
-0.075545698 -0.047746599 0.73332798
-0.068212204 -0.048019599 0.729339
-0.060719799 -0.048218399 0.72436202
-0.053558901 -0.048474401 0.720348
-0.046480201 -0.048722401 0.716322
-0.039700098 -0.049030799 0.71326202
-0.033402499 -0.049471401 0.71215302
-0.027137799 -0.049908601 0.71103901
-0.020905999 -0.050342798 0.709921
-0.014707 -0.050773598 0.70879698
-0.0088918796 -0.051346499 0.70963901
-0.0034113601 -0.052065998 0.71245199
0.00194285 -0.052863099 0.71625698
0.0076481299 -0.053514998 0.71809202
0.0132272 -0.054244298 0.72092003
0.018435599 -0.055206701 0.72672403
0.0236001 -0.056254599 0.73353201
0.0288631 -0.057312202 0.740354
0.0342246 -0.058379501 0.74719
0.039989401 -0.059217099 0.751055
-0.087330699 -0.0460498 0.73970902
-0.0798667 -0.046344001 0.73573899
-0.072739102 -0.0466934 0.73272997
-0.0651851 -0.0469083 0.72776198
-0.057729799 -0.047113501 0.72277999
-0.050602399 -0.047374599 0.71876001
-0.043557301 -0.047627602 0.71472901
-0.037020698 -0.0480069 0.71264499
-0.030738199 -0.0484493 0.71153301
-0.0244886 -0.048888501 0.71041697
-0.0182718 -0.049324501 0.709297
-0.0122683 -0.049827699 0.70915502
-0.0066251699 -0.050471801 0.71098202
-0.0012935 -0.0512615 0.71478301
0.0042431499 -0.0519832 0.71760499
0.00981264 -0.052708302 0.72043103
0.0152758 -0.053511001 0.72425199
0.0205261 -0.054469202 0.73006201
0.025735799 -0.055511501 0.73687601
0.0309295 -0.056640498 0.74469799
0.0364509 -0.057625402 0.75054801
0.042349 -0.058382701 0.75342101
-0.083254799 -0.045109902 0.73929399
-0.075567096 -0.045348 0.73434597
-0.068227097 -0.045638401 0.73035699
-0.0607283 -0.045857899 0.72538102
-0.053328101 -0.0460678 0.72039098
-0.046250999 -0.0463323 0.71636498
-0.0394722 -0.046654001 0.713305
-0.033383299 -0.047167201 0.71317601
-0.027110999 -0.047612 0.71206301
-0.020679999 -0.0479859 0.70996302
-0.014665 -0.048491899 0.70982301
-0.0088417102 -0.0490655 0.710666
-0.0033523701 -0.049779199 0.71348
0.00201104 -0.050567102 0.717287
0.00757427 -0.051288199 0.72011203
0.0131704 -0.052012399 0.72294199
0.018531 -0.052886602 0.72775799
0.023705499 -0.0539154 0.73456699
0.028860999 -0.055028901 0.74238402
0.034240801 -0.056077901 0.74922299
0.0400231 -0.056906998 0.75309002
-0.086667903 -0.043859798 0.74284601
-0.078928597 -0.0441131 0.73790503
-0.0712879 -0.0443567 0.73294997
-0.0637457 -0.044590399 0.72798002
-0.0563021 -0.044814602 0.722996
-0.048957001 -0.0450291 0.71799803
-0.042149302 -0.045360301 0.71494299
-0.035829701 -0.045813099 0.71383703
-0.029542999 -0.0462627 0.712726
-0.023094401 -0.046643302 0.71062899
-0.017068099 -0.047152098 0.710491
-0.0110581 -0.0476593 0.71034998
-0.0055750902 -0.048369002 0.71316397
-0.00022107799 -0.049151 0.71696901
0.0053359098 -0.049867999 0.71979302
0.0110712 -0.050517801 0.72163302
0.016548499 -0.051311899 0.725456
0.0216878 -0.052327201 0.73225999
0.0268049 -0.0534252 0.740071
0.032036901 -0.054534499 0.747899
0.037592798 -0.055505998 0.75375402
-0.090106003 -0.0425938 0.74639398
-0.082315199 -0.042862199 0.74146098
-0.074367397 -0.043063 0.73553997
-0.066781797 -0.0433111 0.73057598
-0.059294902 -0.043549601 0.72559899
-0.051906399 -0.043778401 0.72060698
-0.044838998 -0.044058699 0.71657902
-0.038496699 -0.0445172 0.71547598
-0.032187302 -0.044972301 0.714369
-0.025712799 -0.045360502 0.71227503
-0.019477401 -0.045808401 0.71115702
-0.0134561 -0.046318401 0.71101803
-0.00779782 -0.046958901 0.71284699
-0.0022881499 -0.047667898 0.71566403
0.00309755 -0.048448 0.71947402
0.0088297501 -0.049095701 0.72131401
0.0142976 -0.049883801 0.72513503
0.019682501 -0.050747 0.72995502
0.024761301 -0.051829401 0.73776001
0.0298393 -0.052995 0.74657601
0.035371199 -0.0539557 0.75242698
0.041184101 -0.054777801 0.75629902
-0.085993402 -0.041650798 0.74598497
-0.077465802 -0.0417573 0.73812699
-0.069836698 -0.0420199 0.73316997
-0.062064301 -0.042215101 0.72722399
-0.054640599 -0.042457402 0.72223699
-0.047541201 -0.0427492 0.71821302
-0.040958799 -0.0431531 0.71613503
-0.034844201 -0.043673899 0.71600997
-0.028142801 -0.044008002 0.71293902
-0.021892801 -0.044460699 0.71182299
-0.015675699 -0.0449102 0.710702
-0.0100205 -0.0455487 0.71253002
-0.0045171501 -0.0462537 0.71534699
0.000859186 -0.0470278 0.71915501
0.0065882499 -0.047673699 0.720994
0.0121902 -0.048388399 0.72382498
0.017554499 -0.049242798 0.72864199
0.022857299 -0.050172601 0.73446
0.0277668 -0.051389702 0.74426103
